375.8603820800781 291.54730224609375 1637.3009033203125 182.5375 72.4625 0
421.4393005371094 326.9019470214844 1641.523681640625 181.64499999999998 73.355 0
466.7907409667969 362.08013916015625 1640.896240234375 180.88 74.12 0
514.2674560546875 398.9068298339844 1643.844970703125 179.86 75.14 0
561.7166748046875 435.7122497558594 1642.781005859375 178.92499481201173 76.07500518798828 0
612.3052368164062 474.9527587890625 1646.785400390625 177.64999999999998 77.35000000000001 0
659.6909790039062 511.7089538574219 1638.5611572265625 176.8425 78.1575 0
717.1632690429688 556.2890014648438 1650.9619140625 174.93 80.07000000000001 0
767.0363159179688 594.9745483398438 1641.4351806640625 173.9525 81.0475 0
830.6834716796875 644.3443603515625 1656.571533203125 171.615 83.385 0
882.491943359375 684.5311279296875 1643.4093017578125 170.5525 84.4475 0
941.886962890625 730.6026611328125 1640.6866455078125 168.81 86.19000000000001 0
1005.8733520507812 780.235595703125 1641.152099609375 166.7275 88.27250000000001 0
1073.3072509765625 832.5426635742188 1641.9638671875 164.4325 90.56750000000001 0
1142.269775390625 886.0355224609375 1639.742919921875 162.095 92.905 0
1220.266357421875 946.535888671875 1644.5533447265625 159.12 95.88000000000001 0
1296.2393798828125 1005.4666137695312 1640.4879150390625 156.39999999999998 98.60000000000001 0
1377.7874755859375 1068.7218017578125 1637.436767578125 153.33999999999997 101.66000000000001 0
1468.1275634765625 1138.796875 1638.069580078125 149.7275 105.27250000000001 0
1565.28857421875 1214.16259765625 1638.817138671875 145.7325 109.26750000000001 0
1652.640869140625 1281.9200439453125 1622.364990234375 142.5025 112.4975 0
1694.0091552734375 1314.0086669921875 1557.6309814453125 142.375 112.62500000000001 0
1699.8101806640625 1318.50830078125 1461.9788818359375 144.45749999999998 110.5425 0
1685.8876953125 1307.708984375 1354.0343017578125 147.6025 107.39750000000001 0
1696.2181396484375 1315.7220458984375 1269.5491943359375 149.005 105.995 0
1697.80908203125 1316.9560546875 1181.2598876953125 150.79 104.21000000000001 0
1696.719970703125 1316.111328125 1094.1170654296875 152.575 102.42500000000001 0
1696.5848388671875 1316.0064697265625 1010.3741455078125 154.14749999999998 100.8525 0
1698.34423828125 1317.3712158203125 930.1201782226562 155.46499999999997 99.53500000000001 0
1694.1431884765625 1314.112548828125 848.89501953125 156.995 98.00500000000001 0
1698.0206298828125 1317.1202392578125 773.6771850585938 157.93 97.07000000000001 0
1698.349365234375 1317.375244140625 698.378173828125 158.95 96.05000000000001 0
1698.9102783203125 1317.810302734375 624.6608276367188 159.84249999999997 95.15750000000001 0
1699.0343017578125 1317.906494140625 552.0912475585938 160.64999999999998 94.35000000000001 0
1699.560546875 1318.314697265625 480.78741455078125 161.32999999999998 93.67 0
1701.3408203125 1319.695556640625 410.73956298828125 161.83999999999997 93.16000000000001 0
1702.11083984375 1320.29296875 341.18328857421875 162.3075 92.69250000000001 0
1701.899658203125 1320.129150390625 272.0981750488281 162.7325 92.26750000000001 0
1702.306640625 1320.44482421875 203.65011596679688 163.02999999999997 91.97000000000001 0
1703.3668212890625 1321.26708984375 135.62725830078125 163.2 91.80000000000001 0
1705.1026611328125 1322.6136474609375 67.81556701660156 163.2425 91.75750000000001 0
1705.9444580078125 1323.2666015625 -0.00025735280360095203 163.2425 91.75750000000001 0
1682.0301513671875 1391.496826171875 -0.0002602135937195271 162.2225 92.7775 0
1718.936767578125 1422.028564453125 70.1085433959961 160.14 94.86000000000001 0
1689.47705078125 1397.6573486328125 137.95050048828125 161.6275 93.3725 0
1677.6336669921875 1387.8597412109375 205.81460571289062 162.0525 92.9475 0
1706.98876953125 1412.1444091796875 279.86883544921875 160.0975 94.9025 0
1697.08984375 1403.955322265625 348.84857177734375 160.225 94.775 0
1677.97021484375 1388.13818359375 415.424072265625 160.77749999999997 94.22250000000001 0
1703.9339599609375 1409.6171875 494.3122863769531 158.695 96.305 0
1694.861083984375 1402.1114501953125 564.7744140625 158.4825 96.51750000000001 0
1678.8760986328125 1388.8875732421875 633.0305786132812 158.5675 96.4325 0
1687.6419677734375 1396.139404296875 711.6658935546875 157.1225 97.87750000000001 0
1692.05908203125 1399.79345703125 790.6140747070312 155.805 99.19500000000001 0
1679.9697265625 1389.7923583984375 863.2518920898438 155.33749999999998 99.66250000000001 0
1697.8480224609375 1404.58251953125 953.5519409179688 152.95749999999998 102.0425 0
1692.0587158203125 1399.7930908203125 1033.3662109375 151.8525 103.14750000000001 0
1681.3175048828125 1390.9072265625 1111.8226318359375 150.9175 104.08250000000001 0
1690.0401611328125 1398.123291015625 1205.829345703125 148.6225 106.37750000000001 0
1687.2139892578125 1395.7852783203125 1295.0013427734375 146.88 108.12 0
1694.0732421875 1401.459716796875 1395.29296875 144.32999999999998 110.67 0
1686.2335205078125 1394.97412109375 1487.2725830078125 142.545 112.45500000000001 0
1671.8466796875 1383.0723876953125 1576.4400634765625 141.015 113.98500000000001 0
1617.0386962890625 1337.731201171875 1627.8812255859375 142.12 112.88000000000001 0
1524.5972900390625 1261.257080078125 1636.9049072265625 145.85999999999999 109.14000000000001 0
1423.5411376953125 1177.656005859375 1628.811279296875 150.3225 104.67750000000001 0
1345.2232666015625 1112.8658447265625 1639.490478515625 153.21249999999998 101.78750000000001 0
1256.3895263671875 1039.376220703125 1630.58837890625 156.995 98.00500000000001 0
1187.2955322265625 982.2166137695312 1640.9085693359375 159.33249999999998 95.6675 0
1108.27001953125 916.8409423828125 1631.49169921875 162.5625 92.4375 0
1045.64453125 865.0326538085938 1640.4228515625 164.51749999999998 90.4825 0
980.3969116210938 811.05517578125 1640.3619384765625 166.76999999999998 88.23 0
918.4734497070312 759.8275756835938 1640.6866455078125 168.80999481201172 86.19000518798829 0
853.6253662109375 706.1805419921875 1630.176025390625 171.2325 83.76750000000001 0
802.1898193359375 663.62939453125 1640.529296875 172.4225051879883 82.57749481201172 0
743.65478515625 615.2049560546875 1631.967041015625 174.42 80.58000000000001 0
695.6239624023438 575.4703369140625 1642.1988525390625 175.35500518798827 79.64499481201173 0
640.493896484375 529.86279296875 1631.43310546875 177.1825 77.81750000000001 0
600.6932373046875 496.9367980957031 1656.738525390625 177.1825 77.81750000000001 0
546.223388671875 451.87542724609375 1638.192138671875 179.1375 75.86250000000001 0
499.4981994628906 413.2209777832031 1637.3365478515625 180.1575 74.8425 0
454.1431884765625 375.7000427246094 1637.1326904296875 181.05 73.95 0
409.5345153808594 338.7965087890625 1635.8173828125 181.89999999999998 73.10000000000001 0
369.74169921875 305.8770446777344 1651.705322265625 181.8999948120117 73.10000518798829 0
323.2605895996094 267.42449951171875 1633.9998779296875 183.3025051879883 71.69749481201173 0
281.537353515625 232.90802001953125 1634.66064453125 183.8125 71.1875 0
240.82504272460938 199.2278594970703 1638.4552001953125 184.11 70.89 0
199.605224609375 165.1278533935547 1635.6119384765625 184.62 70.38000000000001 0
159.341552734375 131.81883239746094 1636.9893798828125 184.87499481201172 70.1250051879883 0
119.1362533569336 98.55811309814453 1635.7083740234375 185.17249481201173 69.82750518798828 0
79.44099426269531 65.71932983398438 1638.7598876953125 185.21499999999997 69.78500000000001 0
39.71565246582031 32.855655670166016 1640.1903076171875 185.2575 69.7425 0
-0.0005077242385596037 -0.00042002613190561533 1642.0 185.21499999999997 69.78500000000001 0
-39.69246292114258 -32.83647155761719 1639.1907958984375 185.29999481201173 69.70000518798828 0
-79.44200897216797 -65.72016906738281 1638.7598876953125 185.2149948120117 69.78500518798829 0
-119.64485168457031 -98.9788589477539 1642.6771240234375 184.875 70.125 0
-159.72885131835938 -132.1392364501953 1640.9576416015625 184.70499999999998 70.295 0
-201.0526580810547 -166.3252716064453 1647.4639892578125 184.1100051879883 70.88999481201172 0
-241.25918579101562 -199.58702087402344 1641.40185546875 183.98250000000002 71.0175 0
-283.21917724609375 -234.2993621826172 1644.4195556640625 183.3875 71.61250000000001 0
-322.87835693359375 -267.1083068847656 1632.0623779296875 183.38750518798827 71.61249481201172 0
-368.6678771972656 -304.98870849609375 1646.9034423828125 182.1125 72.8875 0
-412.8689270019531 -341.55499267578125 1649.1317138671875 181.305 73.69500000000001 0
-457.7982177734375 -378.7237548828125 1650.3045654296875 180.45499999999998 74.545 0
-504.6048278808594 -417.445556640625 1654.072021484375 179.39249999999998 75.6075 0
-550.508544921875 -455.42041015625 1651.0401611328125 178.5425 76.45750000000001 0
-602.3345947265625 -498.294677734375 1661.261962890625 176.97000518798828 78.02999481201172 0
-648.8901977539062 -536.808837890625 1652.816650390625 176.16249481201172 78.83750518798828 0
-703.4201049804688 -581.919921875 1660.6005859375 174.46249999999998 80.53750000000001 0
-752.6769409179688 -622.668701171875 1651.7633056640625 173.4425 81.5575 0
-792.2821655273438 -655.4330444335938 1620.2646484375 173.4425 81.5575 0
-869.2177124023438 -719.0796508789062 1659.949951171875 169.70250518798827 85.29749481201172 0
-913.9454956054688 -756.0817260742188 1632.595458984375 169.235 85.765 0
-934.58935546875 -773.1598510742188 1563.7159423828125 170.89249999999998 84.1075 0
-943.487548828125 -780.5210571289062 1480.1551513671875 173.3575 81.64250000000001 0
-997.6986694335938 -825.368408203125 1468.716552734375 171.785 83.215 0
-1061.7628173828125 -878.3668212890625 1467.412841796875 169.4475 85.55250000000001 0
-1109.2850341796875 -917.6806640625 1439.6683349609375 168.47 86.53 0
-1114.9354248046875 -922.3550415039062 1358.824951171875 170.6375 84.36250000000001 0
-1105.0802001953125 -914.2021484375 1264.42724609375 173.74 81.26 0
-1108.4210205078125 -916.9658813476562 1190.0694580078125 175.65249999999997 79.34750000000001 0
-1097.10302734375 -907.6028442382812 1104.4573974609375 178.415 76.58500000000001 0
-1053.4759521484375 -871.5114135742188 993.3560180664062 183.175 71.825 0
-1019.6428833007812 -843.522216796875 899.3323364257812 187.0 68.0 0
-840.5313720703125 -695.3482666015625 692.287353515625 200.09 54.910000000000004 0
-825.0374145507812 -682.530517578125 633.2466430664062 202.13 52.870000000000005 0
-812.9481811523438 -672.5294189453125 580.030517578125 203.82999999999998 51.17 0
-819.0333251953125 -677.5634765625 541.6097412109375 204.2975 50.7025 0
-810.8219604492188 -670.7705078125 495.180419921875 205.5725 49.4275 0
-815.3350219726562 -674.5040283203125 457.91058349609375 205.9975 49.002500000000005 0
-811.6871337890625 -671.4862060546875 417.0841979980469 206.8475 48.1525 0
-815.5813598632812 -674.7078247070312 381.0791931152344 207.1875 47.8125 0
-817.073974609375 -675.9425659179688 344.552978515625 207.6125 47.3875 0
-821.3101806640625 -679.4471435546875 309.67913818359375 207.825 47.175000000000004 0
-820.9368286132812 -679.1382446289062 273.557861328125 208.25 46.75 0
-823.3927612304688 -681.169921875 238.86582946777344 208.4625 46.5375 0
-824.2263793945312 -681.859619140625 204.05722045898438 208.7175 46.282500000000006 0
-827.997314453125 -684.9791870117188 170.19964599609375 208.76 46.24 0
-831.7080078125 -688.0489501953125 136.3614959716797 208.76 46.24 0
-835.364990234375 -691.07421875 102.48286437988281 208.7175 46.282500000000006 0
-834.3571166992188 -690.240478515625 68.12661743164062 208.8875 46.112500000000004 0
-836.3643798828125 -691.9010009765625 34.11096954345703 208.845 46.155 0
-837.5477905273438 -692.8800048828125 -0.0011316868476569653 208.8025 46.197500000000005 0
-785.3661499023438 -692.3936767578125 -0.0010900424094870687 210.5025 44.4975 0
-756.488525390625 -666.9345703125 31.692419052124023 212.11749740600584 42.88250259399415 0
-766.5979614257812 -675.8472900390625 64.29645538330078 211.48 43.52 0
-791.5889282226562 -697.8797607421875 99.75375366210938 209.95 45.050000000000004 0
-776.1966552734375 -684.3096313476562 130.72154235839844 210.6725 44.3275 0
-751.9890747070312 -662.9677734375 158.77999877929688 211.86250259399412 43.13749740600586 0
-761.1397705078125 -671.0352172851562 193.5639190673828 211.0975 43.9025 0
-776.7008056640625 -684.754150390625 231.44898986816406 209.9075 45.0925 0
-757.0598754882812 -667.4382934570312 259.1339111328125 210.715 44.285000000000004 0
-750.5807495117188 -661.7261962890625 290.7077941894531 210.715 44.285000000000004 0
-763.3359985351562 -672.971435546875 330.6472473144531 209.525 45.475 0
-765.0494995117188 -674.4820556640625 367.19097900390625 208.93 46.07 0
-753.9280395507812 -664.67724609375 397.9417419433594 209.0575 45.9425 0
-751.7525024414062 -662.7592163085938 433.68463134765625 208.59 46.410000000000004 0
-764.2398071289062 -673.7682495117188 479.4266052246094 207.14499999999998 47.855000000000004 0
-761.923583984375 -671.7262573242188 517.5482788085938 206.55 48.45 0
-758.5559692382812 -668.75732421875 555.94287109375 205.95499999999998 49.045 0
-775.428466796875 -683.6323852539062 611.35791015625 203.95749999999998 51.042500000000004 0
-779.0081176757812 -686.788330078125 659.0661010742188 202.725 52.275000000000006 0
-937.42822265625 -826.4544677734375 849.3070068359375 190.7825 64.2175 0
-1049.85546875 -925.5723876953125 1016.8673706054688 181.475 73.525 0
-1108.94970703125 -977.6710205078125 1146.7479248046875 175.4825051879883 79.51749481201172 0
-1081.38330078125 -953.3679809570312 1192.619140625 175.4825051879883 79.51749481201172 0
-1107.3284912109375 -976.24169921875 1301.460693359375 171.36 83.64 0
-1111.66015625 -980.060546875 1391.6832275390625 168.59749481201172 86.40250518798828 0
-1093.7032470703125 -964.2294311523438 1458.0531005859375 167.365 87.635 0
-1039.810546875 -916.7166137695312 1476.1605224609375 168.93749481201172 86.0625051879883 0
-969.792724609375 -854.9876098632812 1466.4661865234375 171.91250518798827 83.08749481201173 0
-930.458740234375 -820.3099975585938 1499.41796875 172.2949948120117 82.70500518798829 0
-929.152099609375 -819.1580810546875 1596.9024658203125 169.1075 85.89250000000001 0
-891.068115234375 -785.5824584960938 1635.0225830078125 169.1075 85.89250000000001 0
-845.3587036132812 -745.2842407226562 1658.2957763671875 169.7875 85.2125 0
-805.8695678710938 -710.4698486328125 1692.8768310546875 169.7875 85.2125 0
-731.2196655273438 -644.6570434570312 1648.3204345703125 173.6125 81.3875 0
-681.5421142578125 -600.8604125976562 1652.7138671875 174.845 80.155 0
-630.6868286132812 -556.0254516601562 1650.1435546875 176.29 78.71000000000001 0
-583.5111083984375 -514.4344482421875 1653.1185302734375 177.3525 77.64750000000001 0
-535.6338500976562 -472.2249450683594 1650.1224365234375 178.58499999999998 76.415 0
-489.86285400390625 -431.8723449707031 1649.423095703125 179.60500518798827 75.39499481201173 0
-444.4058837890625 -391.796630859375 1645.60009765625 180.6675 74.33250000000001 0
-401.009521484375 -353.5375671386719 1645.3275146484375 181.47499481201172 73.52500518798828 0
-358.48748779296875 -316.0493469238281 1644.9827880859375 182.19750518798827 72.80249481201173 0
-316.3809509277344 -278.92742919921875 1642.716796875 182.92000000000002 72.08 0
-275.39263916015625 -242.79136657714844 1642.4677734375 183.47249481201172 71.52750518798828 0
-234.73040771484375 -206.94276428222656 1640.4195556640625 184.02499999999998 70.97500000000001 0
-195.49435424804688 -172.3515167236328 1645.4886474609375 184.195 70.805 0
-155.59344482421875 -137.1741180419922 1641.94970703125 184.66250518798827 70.33749481201173 0
-116.476806640625 -102.68815612792969 1642.6771240234375 184.875 70.125 0
-77.47978973388672 -68.30764770507812 1641.75390625 185.08749999999998 69.91250000000001 0
-38.64146041870117 -34.067039489746094 1639.1907958984375 185.29999481201173 69.70000518798828 0
-0.0004936783225275576 -0.0004352361138444394 1640.0 185.3 69.7 0
38.569786071777344 34.00385284423828 1636.1922607421875 185.4275 69.5725 0
77.19620513916016 68.05763244628906 1635.765869140625 185.3425 69.6575 0
116.26404571533203 102.50057983398438 1639.6905517578125 185.00250518798828 69.99749481201172 0
154.84034729003906 136.5101776123047 1634.012939453125 185.00250518798828 69.99749481201172 0
194.43727111816406 171.41958618164062 1636.599609375 184.57750518798827 70.42249481201172 0
233.88607788085938 206.19839477539062 1634.526123046875 184.2799948120117 70.72000518798829 0
272.28265380859375 240.04954528808594 1623.9256591796875 184.28 70.72 0
315.2607116699219 277.9397888183594 1636.9056396484375 183.1750051879883 71.82499481201172 0
357.8586730957031 315.4949645996094 1642.102294921875 182.325 72.67500000000001 0
398.92236328125 351.6974792480469 1636.7684326171875 181.8574948120117 73.14250518798829 0
443.3885192871094 390.8996887207031 1641.8370361328125 180.83750518798826 74.16249481201173 0
487.10052490234375 429.4370422363281 1640.1258544921875 180.03000518798828 74.96999481201172 0
531.4622192382812 468.547119140625 1637.2744140625 179.18 75.82000000000001 0
579.358154296875 510.7731018066406 1641.3564453125 177.905 77.095 0
626.9398803710938 552.7220458984375 1640.3431396484375 176.75750518798827 78.24249481201173 0
675.7592163085938 595.7621459960938 1638.6937255859375 175.5249948120117 79.47500518798829 0
728.1639404296875 641.963134765625 1641.4351806640625 173.9525 81.0475 0
766.4794311523438 675.7427368164062 1610.133544921875 173.9525 81.0475 0
834.3955078125 735.6188354492188 1636.7926025390625 170.89249999999998 84.1075 0
892.8307495117188 787.136474609375 1638.2596435546875 168.93749481201172 86.0625051879883 0
951.6788330078125 839.0180053710938 1635.62109375 167.02499999999998 87.97500000000001 0
1016.0446166992188 895.76416015625 1637.3408203125 164.6875 90.3125 0
1082.3968505859375 954.2615356445312 1636.7425537109375 162.265 92.73500000000001 0
1151.7496337890625 1015.4042358398438 1635.0767822265625 159.6725 95.3275 0
1224.7132568359375 1079.7303466796875 1632.709716796875 156.8675 98.13250000000001 0
1310.150390625 1155.0533447265625 1640.1749267578125 153.17 101.83000000000001 0
1385.8475341796875 1221.7894287109375 1628.811279296875 150.3225 104.67750000000001 0
1490.585693359375 1314.1285400390625 1643.91650390625 145.39249999999998 109.6075 0
1587.2611083984375 1399.359375 1641.3651123046875 141.185 113.81500000000001 0
1650.6387939453125 1455.234375 1598.77587890625 139.39999999999998 115.60000000000001 0
1667.64111328125 1470.223876953125 1510.880126953125 140.76 114.24000000000001 0
1680.25 1481.3402099609375 1421.5484619140625 142.2475 112.75250000000001 0
1669.010498046875 1471.43115234375 1315.8720703125 145.1375 109.86250000000001 0
1677.4991455078125 1478.9149169921875 1229.435302734375 146.54 108.46000000000001 0
1668.87939453125 1471.3155517578125 1133.6141357421875 148.8775 106.1225 0
1668.2955322265625 1470.80078125 1046.5653076171875 150.535 104.465 0
1677.6741943359375 1479.0693359375 967.8492431640625 151.4275 103.5725 0
1668.9632568359375 1471.3895263671875 880.921875 153.2975 101.7025 0
1676.19189453125 1477.762451171875 804.5023193359375 154.0625 100.93750000000001 0
1672.2047119140625 1474.247314453125 724.3355712890625 155.38 99.62 0
1677.6412353515625 1479.0401611328125 649.77001953125 156.01749999999998 98.9825 0
1674.6859130859375 1476.434814453125 573.2298583984375 157.0375 97.9625 0
1680.77734375 1481.8050537109375 500.8565673828125 157.42 97.58000000000001 0
1691.7489013671875 1491.477783203125 430.2272033691406 157.42 97.58000000000001 0
1683.2698974609375 1484.0025634765625 355.4188232421875 158.44 96.56 0
1690.8135986328125 1490.6531982421875 284.7568054199219 158.44 96.56 0
1684.7401123046875 1485.2987060546875 212.30807495117188 159.12 95.88000000000001 0
1685.91650390625 1486.3359375 141.4039764404297 159.29 95.71000000000001 0
1686.1671142578125 1486.5567626953125 70.64252471923828 159.4175 95.58250000000001 0
1687.7496337890625 1487.9520263671875 -0.0002682000049389899 159.375 95.625 0
1667.8798828125 1566.244140625 -0.0002727296086959541 157.76 97.24000000000001 0
1702.7587890625 1598.99755859375 73.40666198730469 155.6775 99.3225 0
1682.7769775390625 1580.2333984375 145.23419189453125 156.6975 98.30250000000001 0
1653.220458984375 1552.47802734375 214.37844848632812 158.185 96.81500000000001 0
1670.6390380859375 1568.8350830078125 289.51947021484375 156.825 98.17500000000001 0
1691.2652587890625 1588.204345703125 367.4642639160156 155.1675 99.83250000000001 0
1676.2882080078125 1574.1400146484375 438.65936279296875 155.5075 99.4925 0
1655.4571533203125 1554.5782470703125 507.6190185546875 156.1025 98.89750000000001 0
1674.083984375 1572.070068359375 589.6434326171875 154.2325 100.76750000000001 0
1682.1573486328125 1579.6514892578125 670.4153442382812 152.8725 102.12750000000001 0
1672.909423828125 1570.967041015625 745.6577758789062 152.4475 102.55250000000001 0
1657.7537841796875 1556.7349853515625 818.7293090820312 152.27749999999997 102.72250000000001 0
1678.8555908203125 1576.5509033203125 911.8442993164062 149.7275 105.27250000000001 0
1677.8876953125 1575.6419677734375 996.0467529296875 148.41 106.59 0
1675.3597412109375 1573.26806640625 1081.479248046875 147.05 107.95 0
1660.162109375 1558.99658203125 1160.399658203125 146.37 108.63000000000001 0
1681.9603271484375 1579.4664306640625 1268.4573974609375 143.0975 111.9025 0
1673.4193115234375 1571.4459228515625 1357.6134033203125 141.65249999999997 113.34750000000001 0
1674.744140625 1572.68994140625 1457.9847412109375 139.3575 115.64250000000001 0
1662.8414306640625 1561.5126953125 1550.2259521484375 137.785 117.215 0
1602.934814453125 1505.2564697265625 1597.600341796875 139.48499999999999 115.51500000000001 0
1533.306884765625 1439.87158203125 1631.55859375 141.865 113.135 0
1415.994873046875 1329.708251953125 1606.9459228515625 147.8575 107.14250000000001 0
1347.333251953125 1265.2305908203125 1629.4725341796875 150.27999999999997 104.72000000000001 0
1248.778564453125 1172.6815185546875 1608.685791015625 155.125 99.87500000000001 0
1189.67822265625 1117.1827392578125 1632.0025634765625 156.91 98.09 0
1122.28076171875 1053.8922119140625 1639.4505615234375 159.4175 95.58250000000001 0
1048.9962158203125 985.0733642578125 1632.2418212890625 162.51999999999998 92.48 0
988.8005981445312 928.5459594726562 1639.65234375 164.56 90.44000000000001 0
921.7274780273438 865.56005859375 1630.0899658203125 167.3225 87.67750000000001 0
868.5225830078125 815.5972900390625 1639.8775634765625 168.8525 86.14750000000001 0
811.6968994140625 762.234375 1638.44677734375 170.8075 84.19250000000001 0
758.546630859375 712.322998046875 1639.68505859375 172.46499999999997 82.53500000000001 0
705.4136352539062 662.427734375 1636.270751953125 174.20749999999998 80.7925 0
657.0636596679688 617.0240478515625 1639.5699462890625 175.4825 79.51750000000001 0
606.9524536132812 569.9664916992188 1634.1060791015625 177.055 77.94500000000001 0
561.4766235351562 527.2618408203125 1636.832275390625 178.1175 76.88250000000001 0
515.3245239257812 483.9220886230469 1633.6033935546875 179.35 75.65 0
472.566162109375 443.76934814453125 1637.3365478515625 180.1575 74.8425 0
428.4219665527344 402.3151550292969 1632.4283447265625 181.2625 73.73750000000001 0
387.4531555175781 363.8428649902344 1635.8173828125 181.89999999999998 73.10000000000001 0
345.3316345214844 324.2881164550781 1630.578857421875 182.8349948120117 72.16500518798829 0
305.4683837890625 286.8540344238281 1632.062744140625 183.3875 71.61250000000001 0
265.7213134765625 249.5290069580078 1630.757080078125 183.9824948120117 71.01750518798829 0
227.56700134277344 213.69972229003906 1636.4906005859375 184.19500518798827 70.80499481201173 0
188.84288024902344 177.3353271484375 1635.6119384765625 184.62 70.38000000000001 0
151.0242462158203 141.82125854492188 1639.9656982421875 184.7475 70.25250000000001 0
112.78125 105.90868377685547 1636.7039794921875 185.12999481201172 69.87000518798828 0
75.0661392211914 70.49182891845703 1636.763916015625 185.3 69.7 0
37.574256896972656 35.28458786010742 1640.1903076171875 185.2575 69.7425 0
-0.0004803486808668822 -0.00045107759069651365 1642.0 185.21499999999997 69.78500000000001 0
-37.529422760009766 -35.24248504638672 1638.1912841796875 185.3424948120117 69.65750518798829 0
-75.29595947265625 -70.7076416015625 1641.75390625 185.08749999999998 69.91250000000001 0
-113.53683471679688 -106.61822509765625 1647.655029296875 184.6625 70.3375 0
-151.57337951660156 -142.33692932128906 1645.918212890625 184.4925 70.50750000000001 0
-189.98419189453125 -178.4071044921875 1645.4886474609375 184.195 70.805 0
-228.66073608398438 -214.72679138183594 1644.3487548828125 183.855 71.14500000000001 0
-268.2665710449219 -251.91917419433594 1646.371337890625 183.3025051879883 71.69749481201173 0
-308.3699645996094 -289.5787658691406 1647.5596923828125 182.70749999999998 72.2925 0
-350.213623046875 -328.87261962890625 1653.62548828125 181.815 73.185 0
-390.3825378417969 -366.59375 1648.1806640625 181.3475 73.6525 0
-432.86767578125 -406.4899597167969 1649.3636474609375 180.4975 74.50250000000001 0
-474.71392822265625 -445.7862243652344 1644.7742919921875 179.81749481201172 75.18250518798828 0
-522.5631713867188 -490.71966552734375 1656.5467529296875 178.28749481201172 76.71250518798828 0
-567.6851806640625 -533.092041015625 1654.92822265625 177.26749999999998 77.7325 0
-617.2127075195312 -579.6015625 1661.7266845703125 175.7375 79.2625 0
-661.6300048828125 -621.3121337890625 1650.961181640625 174.9300051879883 80.06999481201173 0
-719.5155029296875 -675.6702880859375 1668.9781494140625 172.5925 82.4075 0
-768.7032470703125 -721.8606567382812 1661.63671875 171.36 83.64 0
-828.906982421875 -778.395751953125 1673.1832275390625 169.02250518798826 85.97749481201173 0
-877.5215454101562 -824.0479125976562 1656.865966796875 167.96000518798826 87.03999481201173 0
-906.984375 -851.71533203125 1604.0137939453125 168.725 86.275 0
-925.6074829101562 -869.20361328125 1534.861572265625 170.33999999999997 84.66000000000001 0
-954.9923706054688 -896.7978515625 1485.9691162109375 170.8075 84.19250000000001 0
-1008.007568359375 -946.5824584960938 1472.515625 169.14999999999998 85.85000000000001 0
-1071.63916015625 -1006.3364868164062 1470.073974609375 166.64249999999998 88.3575 0
-1103.1771240234375 -1035.95263671875 1421.11865234375 166.76999999999998 88.23 0
-1082.67919921875 -1016.703857421875 1309.3963623046875 170.85 84.15 0
-1086.8511962890625 -1020.6216430664062 1233.414306640625 172.7625 82.23750000000001 0
-965.3734130859375 -906.5463256835938 1027.231201171875 183.76999999999998 71.23 0
-852.1862182617188 -800.2564086914062 849.3487548828125 193.5875 61.4125 0
-871.213623046875 -818.1243896484375 812.2095336914062 193.5875 61.4125 0
-714.5824584960938 -671.037841796875 622.0941162109375 205.6575 49.3425 0
-728.4742431640625 -684.0831298828125 590.9962768554688 205.6575 49.3425 0
-702.04150390625 -659.2611083984375 529.4464721679688 208.2925 46.7075 0
-703.42578125 -660.56103515625 491.6708984375 208.9725 46.0275 0
-703.1236572265625 -660.27734375 453.8798828125 209.695 45.305 0
-705.8102416992188 -662.8002319335938 418.99017333984375 210.1625 44.837500000000006 0
-704.2113647460938 -661.2987060546875 382.4805603027344 210.8425 44.157500000000006 0
-705.0770874023438 -662.1116943359375 348.2217102050781 211.31 43.690000000000005 0
-703.6898193359375 -660.8089599609375 313.6513671875 211.86249740600584 43.13750259399414 0
-705.6242065429688 -662.62548828125 281.2221374511719 212.16000259399414 42.839997406005864 0
-707.4789428710938 -664.3671875 249.1863555908203 212.41499740600585 42.58500259399414 0
-709.2785034179688 -666.0570678710938 217.48788452148438 212.6275 42.3725 0
-710.328125 -667.0427856445312 185.88131713867188 212.84 42.160000000000004 0
-712.7938842773438 -669.3582153320312 154.86917114257812 212.92500259399412 42.07499740600586 0
-714.5418090820312 -670.9996948242188 123.82826232910156 213.00999740600585 41.99000259399414 0
-715.5731201171875 -671.9681396484375 92.78981018066406 213.095 41.905 0
-719.5272827148438 -675.6813354492188 62.098819732666016 212.9675 42.032500000000006 0
-719.1369018554688 -675.3147583007812 31.00140380859375 213.05250259399412 41.947497406005866 0
-722.4077758789062 -678.3862915039062 -0.0010317402193322778 212.8825 42.1175 0
-680.9436645507812 -680.9439697265625 -0.0010025891242548823 214.0725 40.9275 0
-652.33740234375 -652.337646484375 28.991182327270508 215.77249999999998 39.227500000000006 0
-661.957275390625 -661.95751953125 58.89655685424805 215.135 39.865 0
-683.553466796875 -683.5537109375 91.37820434570312 213.7325 41.267500000000005 0
-669.2605590820312 -669.2608032226562 119.56697082519531 214.45499999999998 40.545 0
-649.5130004882812 -649.5133056640625 145.483154296875 215.475 39.525000000000006 0
-659.8528442382812 -659.8531494140625 178.0113525390625 214.62499740600586 40.37500259399415 0
-672.825439453125 -672.82568359375 212.68875122070312 213.5625 41.4375 0
-660.9205322265625 -660.9207763671875 239.98486328125 213.9875 41.0125 0
-649.1528930664062 -649.1531372070312 266.71466064453125 214.37000259399414 40.62999740600586 0
-663.0836181640625 -663.0838623046875 304.6899108886719 213.09499740600586 41.90500259399414 0
-653.9931030273438 -653.9933471679688 332.9785461425781 213.22250259399414 41.777497406005864 0
-646.274658203125 -646.2749633789062 361.8656311035156 213.2225 41.7775 0
-661.9296264648438 -661.929931640625 405.09002685546875 211.64999740600587 43.35000259399414 0
-660.2833862304688 -660.2836303710938 439.4034118652344 211.14 43.86000000000001 0
-652.7182006835938 -652.718505859375 470.3333740234375 210.97 44.03 0
-641.94970703125 -641.949951171875 499.0960388183594 210.97 44.03 0
-656.718994140625 -656.71923828125 549.2549438476562 209.14249999999998 45.8575 0
-661.5094604492188 -661.5097045898438 593.6953125 207.91 47.09 0
-659.6932983398438 -659.6935424804688 634.029296875 207.06 47.940000000000005 0
-679.6091918945312 -679.6094970703125 698.2881469726562 204.51 50.49 0
-663.7643432617188 -663.7645874023438 728.1328735351562 204.51 50.49 0
-1080.953369140625 -1080.953857421875 1264.6480712890625 170.67999481201173 84.32000518798829 0
-1086.8077392578125 -1086.8082275390625 1355.02685546875 167.9175 87.08250000000001 0
-1092.2574462890625 -1092.2578125 1450.55419921875 164.9425 90.0575 0
-1046.00048828125 -1046.0009765625 1479.266357421875 166.08999999999997 88.91000000000001 0
-974.8729858398438 -974.8734130859375 1468.141845703125 169.40499999999997 85.59500000000001 0
-927.7548828125 -927.7552490234375 1488.219482421875 170.67999481201173 84.32000518798829 0
-921.7369384765625 -921.7373046875 1575.69873046875 168.0874948120117 86.91250518798829 0
-898.4196166992188 -898.419921875 1637.990478515625 166.89749999999998 88.1025 0
-854.9451904296875 -854.945556640625 1664.147216796875 167.5775 87.4225 0
-796.893798828125 -796.8941040039062 1658.2957763671875 169.7875 85.2125 0
-741.1030883789062 -741.1033935546875 1651.5047607421875 171.87 83.13000000000001 0
-696.1373901367188 -696.1376342773438 1664.6744384765625 172.805 82.19500000000001 0
-639.403076171875 -639.4033203125 1644.8271484375 175.2275 79.77250000000001 0
-596.13427734375 -596.134521484375 1654.5986328125 176.0774948120117 78.92250518798829 0
-549.4559326171875 -549.4561157226562 1651.3089599609375 177.4375 77.5625 0
-505.76812744140625 -505.7683410644531 1652.875732421875 178.4574948120117 76.54250518798828 0
-460.997802734375 -460.9980163574219 1646.6337890625 179.7325 75.26750000000001 0
-419.6463928222656 -419.64654541015625 1648.4227294921875 180.54000518798827 74.45999481201173 0
-378.0194091796875 -378.0195617675781 1645.3275146484375 181.47499481201172 73.52500518798828 0
-336.94879150390625 -336.9489440917969 1640.181396484375 182.41 72.59 0
-298.5943298339844 -298.5944519042969 1644.654052734375 182.8349948120117 72.16500518798829 0
-259.29571533203125 -259.2958068847656 1640.515869140625 183.55750518798828 71.44249481201173 0
-221.40567016601562 -221.40576171875 1641.40185546875 183.98250000000002 71.0175 0
-184.50778198242188 -184.5078582763672 1647.4639892578125 184.1100051879883 70.88999481201172 0
-146.76181030273438 -146.76187133789062 1642.94189453125 184.62 70.38000000000001 0
-109.79912567138672 -109.79916381835938 1642.6771240234375 184.875 70.125 0
-72.94902801513672 -72.94905853271484 1639.7578125 185.1725 69.8275 0
-36.3594856262207 -36.359500885009766 1636.1922607421875 185.4275 69.5725 0
-0.00046452414244413376 -0.0004645243170671165 1637.0 185.4275 69.5725 0
36.358558654785156 36.35857391357422 1636.1922607421875 185.4275 69.5725 0
72.81489562988281 72.81492614746094 1636.763916015625 185.3 69.7 0
109.53201293945312 109.53205871582031 1638.695068359375 185.04500000000002 69.955 0
146.1405029296875 146.14056396484375 1635.9971923828125 184.9175051879883 70.08249481201172 0
183.17945861816406 183.17953491210938 1635.6119384765625 184.62 70.38000000000001 0
220.6097412109375 220.60983276367188 1635.5084228515625 184.2375 70.7625 0
258.3692932128906 258.369384765625 1634.66064453125 183.8125 71.1875 0
296.6590576171875 296.6591796875 1633.9998779296875 183.3025051879883 71.69749481201173 0
336.15875244140625 336.1589050292969 1636.340576171875 182.57999999999998 72.42 0
377.3629455566406 377.36309814453125 1642.4747314453125 181.6025 73.39750000000001 0
417.01068115234375 417.0108642578125 1638.0736083984375 181.0074948120117 73.99250518798829 0
458.133544921875 458.13372802734375 1636.40673828125 180.2 74.80000000000001 0
502.95892333984375 502.9591369628906 1643.69873046875 178.8825 76.1175 0
544.3367919921875 544.3369750976562 1635.927490234375 178.16 76.84 0
592.2810668945312 592.2813110351562 1643.9072265625 176.58749999999998 78.41250000000001 0
637.017578125 637.017822265625 1638.6937255859375 175.5249948120117 79.47500518798829 0
687.4977416992188 687.4979858398438 1644.0174560546875 173.825 81.17500000000001 0
734.6610717773438 734.661376953125 1637.1519775390625 172.59250518798828 82.40749481201172 0
792.1234130859375 792.1237182617188 1648.3717041015625 170.2975051879883 84.70249481201172 0
839.981689453125 839.9820556640625 1635.0235595703125 169.1075 85.89250000000001 0
902.3191528320312 902.3195190429688 1645.1029052734375 166.515 88.485 0
956.4420166015625 956.4423828125 1635.029296875 164.815 90.185 0
1018.0042724609375 1018.0046997070312 1632.991943359375 162.4775 92.52250000000001 0
1082.8148193359375 1082.8153076171875 1630.7030029296875 159.9275 95.0725 0
1153.9996337890625 1154.0001220703125 1632.0025634765625 156.91 98.09 0
1225.244873046875 1225.245361328125 1627.1685791015625 153.9775 101.02250000000001 0
1306.3961181640625 1306.3966064453125 1628.811279296875 150.3225 104.67750000000001 0
1390.4189453125 1390.4195556640625 1626.7060546875 146.54 108.46000000000001 0
1484.529296875 1484.52978515625 1628.494140625 142.0775 112.92250000000001 0
1581.1773681640625 1581.177978515625 1624.638427734375 137.52999999999997 117.47000000000001 0
1644.5537109375 1644.5543212890625 1580.5784912109375 135.49 119.51 0
1666.3104248046875 1666.31103515625 1495.4925537109375 136.3825 118.6175 0
1662.794677734375 1662.7952880859375 1390.7010498046875 138.89 116.11000000000001 0
1661.880615234375 1661.8812255859375 1292.063232421875 141.015 113.98500000000001 0
1656.3663330078125 1656.366943359375 1193.5408935546875 143.26749999999998 111.7325 0
1659.6651611328125 1659.665771484375 1104.4713134765625 144.755 110.245 0
1655.4725341796875 1655.47314453125 1013.1240844726562 146.58249999999998 108.4175 0
1660.7215576171875 1660.7222900390625 929.8824462890625 147.64499999999998 107.355 0
1657.9351806640625 1657.9359130859375 844.1346435546875 149.08999999999997 105.91000000000001 0
1660.3985595703125 1660.399169921875 762.9627075195312 150.0675 104.9325 0
1659.5494384765625 1659.5501708984375 681.85400390625 151.13 103.87 0
1661.5469970703125 1661.5477294921875 603.3213500976562 151.89499999999998 103.105 0
1661.7060546875 1661.7066650390625 525.2886352539062 152.66 102.34 0
1664.2181396484375 1664.21875 448.96533203125 153.17 101.83000000000001 0
1665.6864013671875 1665.68701171875 373.09588623046875 153.6375 101.36250000000001 0
1665.434326171875 1665.43505859375 297.5408020019531 154.105 100.89500000000001 0
1668.4052734375 1668.406005859375 223.03640747070312 154.27499999999998 100.72500000000001 0
1669.00732421875 1669.0079345703125 148.49928283691406 154.4875 100.5125 0
1671.4820556640625 1671.482666015625 74.2861557006836 154.4875 100.5125 0
1670.1859130859375 1670.1865234375 -0.00028155039763078094 154.615 100.385 0
1637.436279296875 1743.693359375 -0.00028512641438283026 153.33999999999997 101.66000000000001 0
1640.733642578125 1747.20458984375 75.32270812988281 153.08499999999998 101.915 0
1654.0179443359375 1761.3509521484375 152.0155487060547 152.1075 102.89250000000001 0
1631.5323486328125 1737.40625 225.2949981689453 153.255 101.745 0
1643.540771484375 1750.1939697265625 303.3061218261719 152.14999999999998 102.85000000000001 0
1657.1678466796875 1764.7052001953125 383.4205627441406 150.83249999999998 104.1675 0
1658.1920166015625 1765.7958984375 462.0820007324219 150.195 104.805 0
1636.7491455078125 1742.9615478515625 534.4506225585938 150.875 104.12500000000001 0
1647.6561279296875 1754.5762939453125 617.9940185546875 149.3875 105.61250000000001 0
1667.7379150390625 1775.961181640625 707.8001098632812 147.1775 107.8225 0
1648.4405517578125 1755.41162109375 782.4307861328125 147.39 107.61000000000001 0
1642.3966064453125 1748.9754638671875 863.7814331054688 146.625 108.37500000000001 0
1649.7449951171875 1756.8006591796875 954.1786499023438 144.83999999999997 110.16000000000001 0
1664.2239990234375 1772.2193603515625 1052.0445556640625 142.4175 112.58250000000001 0
1644.498046875 1751.2132568359375 1130.44384765625 142.1625 112.8375 0
1651.09619140625 1758.2396240234375 1228.9521484375 139.9525 115.04750000000001 0
1651.4505615234375 1758.616943359375 1326.267822265625 137.9975 117.00250000000001 0
1668.6663818359375 1776.949951171875 1441.605224609375 134.64 120.36000000000001 0
1646.6710205078125 1753.52734375 1526.570556640625 133.91748962402343 121.08251037597657 0
1590.386962890625 1693.5908203125 1578.8922119140625 135.6175 119.38250000000001 0
1529.0697021484375 1628.2945556640625 1622.8751220703125 137.65749999999997 117.34250000000002 0
1439.330078125 1532.7315673828125 1630.9456787109375 141.9075 113.0925 0
1340.7841796875 1427.790771484375 1620.3319091796875 146.96499999999997 108.03500000000001 0
1266.2569580078125 1348.4273681640625 1630.795166015625 150.195 104.805 0
1181.663330078125 1258.3441162109375 1621.0076904296875 154.36 100.64 0
1146.22509765625 1220.606201171875 1674.428955078125 154.36 100.64 0
1109.6556396484375 1181.663818359375 1726.1978759765625 154.36 100.64 0
984.1675415039062 1048.032470703125 1630.7415771484375 162.605 92.39500000000001 0
948.6174926757812 1010.1754150390625 1675.095947265625 162.605 92.39500000000001 0
867.2379150390625 923.5150146484375 1633.2506103515625 167.15249999999997 87.84750000000001 0
814.3898315429688 867.2374877929688 1637.4505615234375 168.98 86.02000000000001 0
759.9254150390625 809.23876953125 1633.4842529296875 171.06250518798828 83.93749481201172 0
711.2222900390625 757.3751220703125 1637.1519775390625 172.59250518798828 82.40749481201172 0
661.0336303710938 703.9296264648438 1632.8277587890625 174.3775 80.6225 0
615.7046508789062 655.6591186523438 1636.064697265625 175.65249999999997 79.34750000000001 0
570.5878295898438 607.6145629882812 1635.88818359375 176.96999481201172 78.03000518798828 0
526.6786499023438 560.8560180664062 1635.022705078125 178.2025 76.7975 0
483.6500244140625 515.03515625 1632.6856689453125 179.39249999999998 75.6075 0
443.0131530761719 471.76129150390625 1634.5472412109375 180.285 74.715 0
402.0831298828125 428.1752014160156 1631.4874267578125 181.305 73.69500000000001 0
363.4196472167969 387.0027770996094 1633.915283203125 181.98499481201173 73.01500518798828 0
324.4789733886719 345.53515625 1631.5390625 182.7925 72.20750000000001 0
287.0241394042969 305.6498107910156 1633.0313720703125 183.34499481201172 71.65500518798828 0
250.42486572265625 266.6755065917969 1636.612548828125 183.7274948120117 71.27250518798829 0
213.6996307373047 227.5670928955078 1636.4906005859375 184.19500518798827 70.80499481201173 0
177.12107849121094 188.61488342285156 1633.6365966796875 184.70499999999998 70.295 0
141.5637969970703 150.7501983642578 1636.9893798828125 184.87499481201172 70.1250051879883 0
105.90863800048828 112.78128814697266 1636.7039794921875 185.12999481201172 69.87000518798828 0
70.53477478027344 75.1119384765625 1637.7618408203125 185.25750518798827 69.74249481201173 0
35.220069885253906 37.50558090209961 1637.1917724609375 185.385 69.61500000000001 0
-0.0004508027050178498 -0.00048005630378611386 1641.0 185.2575 69.7425 0
-35.263973236083984 -37.55233383178711 1639.1907958984375 185.29999481201173 69.70000518798828 0
-70.62164306640625 -75.2044448852539 1639.7578125 185.1725 69.8275 0
-106.36048889160156 -113.26246643066406 1643.6727294921875 184.83249999999998 70.1675 0
-142.07948303222656 -151.29934692382812 1642.94189453125 184.62 70.38000000000001 0
-178.5141143798828 -190.09829711914062 1646.476318359375 184.15249999999997 70.84750000000001 0
-214.98324584960938 -228.9340057373047 1646.313232421875 183.77000518798826 71.22999481201173 0
-252.2177276611328 -268.584716796875 1648.3232421875 183.2175 71.7825 0
-287.5357666015625 -306.1946105957031 1635.936767578125 183.2175 71.7825 0
-328.1085510253906 -349.4002380371094 1649.7843017578125 181.985 73.015 0
-363.4205322265625 -387.00372314453125 1633.914794921875 181.985 73.015 0
-406.7216491699219 -433.11474609375 1650.3045654296875 180.45499999999998 74.545 0
-448.3060302734375 -477.39764404296875 1654.072021484375 179.39249999999998 75.6075 0
-490.7194519042969 -522.5633544921875 1656.5467529296875 178.28749481201172 76.71250518798828 0
-532.8003540039062 -567.375 1654.0234375 177.31 77.69000000000001 0
-578.0474243164062 -615.5582275390625 1657.2716064453125 175.95 79.05000000000001 0
-623.9501342773438 -664.439697265625 1657.9716796875 174.58999999999997 80.41000000000001 0
-672.8822631835938 -716.547119140625 1662.09228515625 172.9325 82.06750000000001 0
-729.5631103515625 -776.9061889648438 1679.3675537109375 170.46749999999997 84.53250000000001 0
-774.5477294921875 -824.8098754882812 1664.9124755859375 169.4475 85.55250000000001 0
-835.3138427734375 -889.5192260742188 1679.5184326171875 166.76999999999998 88.23 0
-877.7279052734375 -934.6857299804688 1653.00341796875 166.08999999999997 88.91000000000001 0
-912.8379516601562 -972.0740966796875 1611.912841796875 166.08999999999997 88.91000000000001 0
-912.1892700195312 -971.38330078125 1511.472900390625 169.3625 85.6375 0
-944.2390747070312 -1005.5128784179688 1468.870849609375 169.3625 85.6375 0
-1014.0808715820312 -1079.8868408203125 1481.3876953125 165.96249999999998 89.03750000000001 0
-1066.39208984375 -1135.5926513671875 1462.8759765625 164.1775 90.8225 0
-1071.646484375 -1141.1881103515625 1380.15673828125 166.3025 88.6975 0
-1053.3232421875 -1121.6759033203125 1272.9345703125 170.1275 84.8725 0
-702.0863037109375 -747.6463012695312 795.5525512695312 199.83499999999998 55.165000000000006 0
-617.4986572265625 -657.5695190429688 655.3798217773438 207.6125 47.3875 0
-619.9624633789062 -660.1932983398438 615.4805908203125 208.4625 46.5375 0
-611.50537109375 -651.1873779296875 566.904052734375 210.035 44.965 0
-610.4304809570312 -650.042724609375 527.3661499023438 210.97 44.03 0
-613.070556640625 -652.8541259765625 492.35150146484375 211.565 43.435 0
-605.66650390625 -644.9696044921875 450.81182861328125 212.7975 42.2025 0
-610.7252807617188 -650.356689453125 419.817626953125 213.095 41.905 0
-606.885986328125 -646.2681884765625 383.6440734863281 213.94500259399413 41.05499740600586 0
-610.38037109375 -649.9893798828125 353.0306396484375 214.2425 40.7575 0
-608.0089721679688 -647.4640502929688 319.7677917480469 214.87999740600586 40.120002593994144 0
-610.6783447265625 -650.3067016601562 289.85711669921875 215.135 39.865 0
-611.3506469726562 -651.0225830078125 259.4609069824219 215.47500259399413 39.52499740600586 0
-616.6279296875 -656.642333984375 231.28074645996094 215.47500259399413 39.52499740600586 0
-614.6160888671875 -654.4999389648438 200.69093322753906 215.9 39.1 0
-616.61083984375 -656.6241455078125 171.82778930664062 216.02749740600586 38.97250259399414 0
-617.2967529296875 -657.3546142578125 142.82379150390625 216.1975 38.8025 0
-618.7048950195312 -658.8540649414062 114.17768096923828 216.2825 38.7175 0
-620.1731567382812 -660.4176025390625 85.63765716552734 216.32500259399413 38.674997406005865 0
-623.074951171875 -663.5076904296875 57.26403045654297 216.23999740600584 38.760002593994145 0
-626.0513916015625 -666.6773071289062 28.739904403686523 216.1125 38.8875 0
-627.0449829101562 -667.7354125976562 -0.0009536569705232978 216.07 38.93 0
-585.9221801757812 -664.5985107421875 -0.0009224236709997058 217.345 37.655 0
-569.1084594726562 -645.527099609375 27.043779373168945 218.40749740600586 36.59250259399414 0
-578.825927734375 -656.5494995117188 55.06639862060547 217.72749740600585 37.27250259399414 0
-590.5640258789062 -669.8637084960938 84.41426086425781 216.8775 38.1225 0
-577.365478515625 -654.8928833007812 110.2923812866211 217.59999740600585 37.400002593994145 0
-566.9515380859375 -643.08056640625 135.78427124023438 218.11 36.89 0
-574.8943481445312 -652.0899658203125 165.8316192626953 217.38750259399413 37.612497406005865 0
-584.07373046875 -662.5018920898438 197.41879272460938 216.53749740600585 38.462502593994145 0
-571.9982299804688 -648.804931640625 222.07925415039062 217.0475 37.9525 0
-567.7379150390625 -643.9725952148438 249.41725158691406 217.005 37.995000000000005 0
-571.7109985351562 -648.4791259765625 280.8956604003906 216.3675 38.6325 0
-575.5494995117188 -652.8330688476562 313.331787109375 215.68749740600586 39.31250259399415 0
-565.6824951171875 -641.64111328125 338.673828125 215.90000259399415 39.09999740600586 0
-564.4375610351562 -640.22900390625 369.3468017578125 215.475 39.525000000000006 0
-575.0364379882812 -652.2510986328125 409.17315673828125 214.15749740600586 40.84250259399414 0
-571.5562744140625 -648.3036499023438 440.37005615234375 213.775 41.225 0
-568.5014038085938 -644.8385620117188 472.5996398925781 213.30749740600587 41.69250259399414 0
-565.8037109375 -641.7786254882812 505.9864501953125 212.75500259399413 42.244997406005865 0
-580.1404418945312 -658.0404663085938 556.7233276367188 210.8425 44.157500000000006 0
-571.0245361328125 -647.7005004882812 586.8143310546875 210.63 44.370000000000005 0
-558.5532836914062 -633.5546264648438 613.6471557617188 210.63 44.370000000000005 0
-595.1719970703125 -675.0903930664062 698.1004638671875 206.5925 48.407500000000006 0
-580.3771362304688 -658.3089599609375 726.0252685546875 206.5925 48.407500000000006 0
-960.367431640625 -1089.323486328125 1280.2987060546875 172.72 82.28 0
-1015.7337646484375 -1152.124267578125 1442.339599609375 165.4525 89.5475 0
-975.91943359375 -1106.9638671875 1475.7308349609375 166.3025 88.6975 0
-924.86474609375 -1049.0535888671875 1489.2818603515625 168.1725051879883 86.82749481201172 0
-907.4672241210938 -1029.320068359375 1556.4794921875 166.8125 88.1875 0
-891.127685546875 -1010.7864379882812 1628.8641357421875 165.15499999999997 89.84500000000001 0
-843.8823852539062 -957.1971435546875 1645.1019287109375 166.515 88.485 0
-801.1304931640625 -908.70458984375 1667.3831787109375 167.4075 87.5925 0
-766.0997924804688 -868.9700317382812 1704.6123046875 167.4075 87.5925 0
-697.7129516601562 -791.4003295898438 1662.4810791015625 171.3175 83.6825 0
-662.8350830078125 -751.8391723632812 1694.8004150390625 171.3175 83.6825 0
