39.7156982421875 32.8557014465332 1640.18994140625 185.25751556396483 69.74248443603516 0
-0.00050772400572896 -0.00042002598638646305 1642.0 185.21499999999997 69.78500000000001 0
-39.692501068115234 -32.83649826049805 1639.18994140625 185.30003112792969 69.69996887207031 0
-79.44200134277344 -65.72019958496094 1638.760009765625 185.2149948120117 69.78500518798829 0
-119.6449966430664 -98.97889709472656 1642.6800537109375 184.87487548828125 70.12512451171875 0
-159.72900390625 -132.13900756835938 1640.9599609375 184.70490142822266 70.29509857177734 0
-201.05299377441406 -166.3249969482422 1647.4599609375 184.11017120361328 70.88982879638672 0
-241.25900268554688 -199.58700561523438 1641.4000244140625 183.9825778198242 71.01742218017579 0
-283.218994140625 -234.2989959716797 1644.4200439453125 183.38748443603515 71.61251556396485 0
-322.87799072265625 -267.1080017089844 1632.06005859375 183.38759857177735 71.61240142822267 0
-368.6679992675781 -304.989013671875 1646.9000244140625 182.11263488769532 72.88736511230469 0
-412.8689880371094 -341.55499267578125 1649.1300048828125 181.30506744384763 73.69493255615235 0
-457.7980041503906 -378.7239990234375 1650.300048828125 180.45518157958983 74.54481842041017 0
-504.6050109863281 -417.4460144042969 1654.0699462890625 179.39257263183595 75.60742736816407 0
-550.5089721679688 -455.4200134277344 1651.0400390625 178.54250518798827 76.45749481201173 0
-602.3350219726562 -498.2950134277344 1661.260009765625 176.97006744384765 78.02993255615235 0
-648.8900146484375 -536.8090209960938 1652.8199462890625 176.16237548828124 78.83762451171876 0
-703.4199829101562 -581.9199829101562 1660.5999755859375 174.4625259399414 80.5374740600586 0
-752.677001953125 -622.6690063476562 1651.760009765625 173.4426141357422 81.55738586425782 0
-792.281982421875 -655.4329833984375 1620.260009765625 173.44267120361326 81.55732879638673 0
-869.218017578125 -719.0800170898438 1659.949951171875 169.70248962402343 85.29751037597657 0
-913.9450073242188 -756.0819702148438 1632.5999755859375 169.23484954833984 85.76515045166016 0
-934.5889892578125 -773.1599731445312 1563.719970703125 170.89237030029295 84.10762969970703 0
-943.4879760742188 -780.52099609375 1480.1600341796875 173.3573287963867 81.64267120361329 0
-997.698974609375 -825.3679809570312 1468.719970703125 171.7848962402344 83.21510375976563 0
-1061.760009765625 -878.3670043945312 1467.4100341796875 169.44764526367186 85.55235473632813 0
-1109.2900390625 -917.6810302734375 1439.6700439453125 168.46982360839843 86.53017639160157 0
-1114.93994140625 -922.35498046875 1358.8199462890625 170.63753631591794 84.36246368408204 0
-1105.0799560546875 -914.2020263671875 1264.4300537109375 173.73992736816405 81.26007263183594 0
-1108.4200439453125 -916.9660034179688 1190.0699462890625 175.65251037597656 79.34748962402344 0
-1097.0999755859375 -907.60302734375 1104.4599609375 178.41500518798827 76.58499481201173 0
-1053.47998046875 -871.510986328125 993.3560180664062 183.17490142822265 71.82509857177735 0
-1019.6400146484375 -843.52197265625 899.3319702148438 187.00009338378908 67.99990661621094 0
-840.531005859375 -695.3480224609375 692.2869873046875 200.0900259399414 54.909974060058595 0
-825.0369873046875 -682.531005859375 633.2470092773438 202.12999481201172 52.87000518798828 0
-812.947998046875 -672.5289916992188 580.031005859375 203.83000518798826 51.16999481201172 0
-819.0330200195312 -677.56298828125 541.6099853515625 204.29751556396485 50.70248443603516 0
-810.822021484375 -670.77099609375 495.17999267578125 205.5724948120117 49.42750518798829 0
-815.3350219726562 -674.5040283203125 457.9110107421875 205.99749481201172 49.002505187988284 0
-811.68701171875 -671.4860229492188 417.0840148925781 206.84751037597655 48.15248962402344 0
-815.5809936523438 -674.7080078125 381.0790100097656 207.18751037597656 47.81248962402344 0
-817.073974609375 -675.9429931640625 344.5530090332031 207.61248962402342 47.38751037597657 0
-821.3099975585938 -679.447021484375 309.6789855957031 207.82501037597655 47.17498962402344 0
-820.93701171875 -679.1380004882812 273.5580139160156 208.25 46.75 0
-823.3930053710938 -681.1699829101562 238.86599731445312 208.46248962402342 46.53751037597657 0
-824.2260131835938 -681.8599853515625 204.0570068359375 208.71750518798828 46.28249481201172 0
-827.9970092773438 -684.97900390625 170.1999969482422 208.76001556396483 46.23998443603516 0
-831.7080078125 -688.0490112304688 136.36099243164062 208.76 46.24 0
-835.364990234375 -691.073974609375 102.48300170898438 208.71750518798828 46.28249481201172 0
-834.3569946289062 -690.239990234375 68.12660217285156 208.88751556396483 46.11248443603516 0
-836.364013671875 -691.9010009765625 34.111000061035156 208.84501556396484 46.15498443603516 0
-837.5479736328125 -692.8800048828125 -0.0011316899908706546 208.80249481201173 46.197505187988284 0
-785.3660278320312 -692.3939819335938 -0.0010900399647653103 210.50249481201172 44.49750518798828 0
-756.489013671875 -666.9349975585938 31.692399978637695 212.11747146606444 42.88252853393555 0
-766.5980224609375 -675.8469848632812 64.29650115966797 211.4800077819824 43.519992218017585 0
-791.5889892578125 -697.8800048828125 99.75379943847656 209.94998962402343 45.05001037597656 0
-776.197021484375 -684.3099975585938 130.7220001220703 210.6724740600586 44.32752593994141 0
-751.989013671875 -662.968017578125 158.77999877929688 211.86249481201173 43.13750518798828 0
-761.1400146484375 -671.0349731445312 193.56399536132812 211.0975 43.9025 0
-776.7009887695312 -684.7540283203125 231.44900512695312 209.9075 45.0925 0
-757.0599975585938 -667.43798828125 259.1340026855469 210.71500518798828 44.284994812011725 0
-750.5809936523438 -661.7260131835938 290.7080078125 210.71499481201172 44.28500518798828 0
-763.3359985351562 -672.9710083007812 330.6470031738281 209.52501556396484 45.47498443603516 0
-765.0490112304688 -674.4819946289062 367.1910095214844 208.93001556396484 46.069984436035156 0
-753.927978515625 -664.677001953125 397.9419860839844 209.05750518798828 45.942494812011724 0
-751.7529907226562 -662.7589721679688 433.68499755859375 208.58998962402342 46.41001037597657 0
-764.239990234375 -673.7680053710938 479.427001953125 207.1449948120117 47.85500518798828 0
-761.9240112304688 -671.7260131835938 517.5479736328125 206.55 48.45 0
-758.5560302734375 -668.7570190429688 555.9429931640625 205.95500518798826 49.04499481201172 0
-775.427978515625 -683.6320190429688 611.3579711914062 203.95752075195313 51.04247924804688 0
-779.0079956054688 -686.7880249023438 659.0659790039062 202.72501037597655 52.27498962402344 0
-937.427978515625 -826.4539794921875 849.3070068359375 190.78251556396484 64.21748443603516 0
-1049.8599853515625 -925.572021484375 1016.8699951171875 181.4748287963867 73.52517120361328 0
-1108.949951171875 -977.6710205078125 1146.75 175.4824429321289 79.5175570678711 0
-1081.3800048828125 -953.3679809570312 1192.6199951171875 175.48255706787108 79.51744293212892 0
-1107.3299560546875 -976.2420043945312 1301.4599609375 171.35997924804687 83.64002075195313 0
-1111.6600341796875 -980.0609741210938 1391.6800537109375 168.5975830078125 86.40241699218751 0
-1093.699951171875 -964.22900390625 1458.050048828125 167.36517639160155 87.63482360839845 0
-1039.81005859375 -916.7169799804688 1476.1600341796875 168.93751556396484 86.06248443603516 0
-969.7930297851562 -854.9879760742188 1466.469970703125 171.91236511230468 83.08763488769532 0
-930.458984375 -820.3099975585938 1499.4200439453125 172.29492218017577 82.70507781982423 0
-929.1519775390625 -819.1580200195312 1596.9000244140625 169.10758300781248 85.8924169921875 0
-891.0679931640625 -785.5819702148438 1635.02001953125 169.10759857177732 85.89240142822267 0
-845.3590087890625 -745.2839965820312 1658.300048828125 169.78734954833982 85.21265045166017 0
-805.8699951171875 -710.469970703125 1692.8800048828125 169.78737548828124 85.21262451171876 0
-731.219970703125 -644.656982421875 1648.3199462890625 173.61251037597657 81.38748962402344 0
-681.5419921875 -600.8599853515625 1652.7099609375 174.84515045166015 80.15484954833985 0
-630.68701171875 -556.0250244140625 1650.1400146484375 176.29014007568358 78.70985992431642 0
-583.510986328125 -514.4340209960938 1653.1199951171875 177.35244812011717 77.64755187988281 0
-535.6339721679688 -472.2250061035156 1650.1199951171875 178.58509338378906 76.41490661621094 0
-489.8630065917969 -431.87200927734375 1649.4200439453125 179.60512451171874 75.39487548828126 0
-444.406005859375 -391.7969970703125 1645.5999755859375 180.6675051879883 74.33249481201172 0
-401.010009765625 -353.5379943847656 1645.3299560546875 181.4748910522461 73.5251089477539 0
-358.48699951171875 -316.04901123046875 1644.97998046875 182.19761932373046 72.80238067626954 0
-316.3810119628906 -278.927001953125 1642.719970703125 182.91987030029298 72.08012969970703 0
-275.39300537109375 -242.79100036621094 1642.469970703125 183.47240661621095 71.52759338378907 0
-234.72999572753906 -206.9429931640625 1640.4200439453125 184.02497924804686 70.97502075195312 0
-195.49400329589844 -172.3520050048828 1645.489990234375 184.1949481201172 70.80505187988281 0
-155.59300231933594 -137.1739959716797 1641.949951171875 184.66248962402344 70.33751037597656 0
-116.47699737548828 -102.68800354003906 1642.6800537109375 184.87487548828125 70.12512451171875 0
-77.47979736328125 -68.30760192871094 1641.75 185.087666015625 69.91233398437501 0
-38.64149856567383 -34.06700134277344 1639.18994140625 185.30003112792969 69.69996887207031 0
-0.0004936779732815921 -0.00043523599742911756 1640.0 185.3 69.7 0
38.569801330566406 34.00389862060547 1636.18994140625 185.42759857177734 69.57240142822266 0
77.19619750976562 68.05760192871094 1635.77001953125 185.34232360839843 69.65767639160157 0
116.26399993896484 102.5009994506836 1639.68994140625 185.00253112792967 69.99746887207031 0
154.83999633789062 136.50999450683594 1634.010009765625 185.00262451171875 69.99737548828125 0
194.43699645996094 171.4199981689453 1636.5999755859375 184.57748962402343 70.42251037597657 0
233.88600158691406 206.197998046875 1634.530029296875 184.27983917236327 70.72016082763672 0
272.2829895019531 240.0500030517578 1623.9300537109375 184.27981323242187 70.72018676757813 0
315.260986328125 277.94000244140625 1636.9100341796875 183.17481323242185 71.82518676757813 0
357.8590087890625 315.4949951171875 1642.0999755859375 182.32509338378907 72.67490661621095 0
398.9219970703125 351.6969909667969 1636.77001953125 181.8574429321289 73.1425570678711 0
443.3890075683594 390.8999938964844 1641.8399658203125 180.83738067626953 74.16261932373047 0
487.10101318359375 429.43701171875 1640.1300048828125 180.0298287963867 74.97017120361329 0
531.4619750976562 468.5469970703125 1637.27001953125 179.18017639160155 75.81982360839844 0
579.3579711914062 510.77301025390625 1641.3599853515625 177.90487030029297 77.09512969970703 0
626.9400024414062 552.7219848632812 1640.3399658203125 176.75761932373047 78.24238067626953 0
675.7589721679688 595.7620239257812 1638.68994140625 175.52514526367187 79.47485473632813 0
728.1640014648438 641.9630126953125 1641.43994140625 173.95232879638672 81.04767120361329 0
766.47900390625 675.7429809570312 1610.1300048828125 173.95262969970702 81.04737030029297 0
834.39599609375 735.6190185546875 1636.7900390625 170.89257781982423 84.10742218017579 0
892.8309936523438 787.135986328125 1638.260009765625 168.93748962402344 86.06251037597657 0
951.6790161132812 839.0180053710938 1635.6199951171875 167.02503112792968 87.97496887207032 0
1016.0399780273438 895.7639770507812 1637.3399658203125 164.68762451171875 90.31237548828126 0
1082.4000244140625 954.2620239257812 1636.739990234375 162.265 92.73500000000001 0
1151.75 1015.4000244140625 1635.0799560546875 159.6724688720703 95.32753112792969 0
1224.7099609375 1079.72998046875 1632.7099609375 156.8675726318359 98.13242736816407 0
1310.1500244140625 1155.050048828125 1640.1700439453125 153.1702178955078 101.8297821044922 0
1385.8499755859375 1221.7900390625 1628.81005859375 150.32246887207032 104.6775311279297 0
1490.5899658203125 1314.1300048828125 1643.9200439453125 145.39227172851562 109.60772827148438 0
1587.260009765625 1399.3599853515625 1641.3699951171875 141.1848858642578 113.81511413574219 0
1650.6400146484375 1455.22998046875 1598.780029296875 139.3999688720703 115.6000311279297 0
1667.6400146484375 1470.219970703125 1510.8800048828125 140.76012451171874 114.23987548828126 0
1680.25 1481.3399658203125 1421.550048828125 142.2474688720703 112.7525311279297 0
1669.010009765625 1471.4300537109375 1315.8699951171875 145.1375830078125 109.8624169921875 0
1677.5 1478.9100341796875 1229.43994140625 146.54 108.46000000000001 0
1668.8800048828125 1471.3199462890625 1133.6099853515625 148.87744812011718 106.12255187988282 0
1668.300048828125 1470.800048828125 1046.5699462890625 150.5348028564453 104.46519714355469 0
1677.6700439453125 1479.0699462890625 967.8489990234375 151.42761413574217 103.57238586425783 0
1668.9599609375 1471.3900146484375 880.9219970703125 153.29758300781248 101.70241699218751 0
1676.18994140625 1477.760009765625 804.5020141601562 154.06262451171875 100.93737548828126 0
1672.199951171875 1474.25 724.3359985351562 155.38007263183593 99.61992736816407 0
1677.6400146484375 1479.0400390625 649.77001953125 156.01754150390624 98.98245849609376 0
1674.68994140625 1476.4300537109375 573.22998046875 157.0375 97.9625 0
1680.780029296875 1481.81005859375 500.85699462890625 157.41978210449219 97.58021789550781 0
1691.75 1491.47998046875 430.22698974609375 157.41990661621094 97.58009338378906 0
1683.27001953125 1484.0 355.41900634765625 158.44007263183593 96.55992736816407 0
1690.81005859375 1490.6500244140625 284.7569885253906 158.44019714355468 96.55980285644532 0
1684.739990234375 1485.300048828125 212.30799865722656 159.1199688720703 95.8800311279297 0
1685.9200439453125 1486.3399658203125 141.4040069580078 159.28977172851563 95.71022827148438 0
1686.1700439453125 1486.56005859375 70.64250183105469 159.41731323242186 95.58268676757814 0
1687.75 1487.949951171875 -0.0002682000049389899 159.3750518798828 95.6249481201172 0
1667.8800048828125 1566.239990234375 -0.00027272998704575 157.76011413574219 97.23988586425781 0
1702.760009765625 1599.0 73.40670013427734 155.67738586425781 99.3226141357422 0
1682.780029296875 1580.22998046875 145.23399353027344 156.6975 98.30250000000001 0
1653.219970703125 1552.47998046875 214.3780059814453 158.18495849609374 96.81504150390626 0
1670.6400146484375 1568.8399658203125 289.5190124511719 156.824833984375 98.17516601562501 0
1691.27001953125 1588.199951171875 367.4639892578125 155.16747924804687 99.83252075195313 0
1676.2900390625 1574.1400146484375 438.65899658203125 155.50744812011717 99.49255187988283 0
1655.4599609375 1554.5799560546875 507.6189880371094 156.10236511230468 98.89763488769532 0
1674.0799560546875 1572.0699462890625 589.6430053710938 154.23262451171874 100.76737548828126 0
1682.1600341796875 1579.6500244140625 670.4149780273438 152.8724688720703 102.1275311279297 0
1672.9100341796875 1570.969970703125 745.6580200195312 152.44739624023435 102.55260375976563 0
1657.75 1556.72998046875 818.72900390625 152.27775939941404 102.72224060058595 0
1678.8599853515625 1576.550048828125 911.843994140625 149.72739624023438 105.27260375976563 0
1677.8900146484375 1575.6400146484375 996.0469970703125 148.40997924804685 106.59002075195313 0
1675.3599853515625 1573.27001953125 1081.47998046875 147.04992736816405 107.95007263183595 0
1660.1600341796875 1559.0 1160.4000244140625 146.3699688720703 108.6300311279297 0
1681.9599609375 1579.469970703125 1268.4599609375 143.0973651123047 111.90263488769531 0
1673.4200439453125 1571.449951171875 1357.6099853515625 141.65244812011719 113.34755187988281 0
1674.739990234375 1572.68994140625 1457.97998046875 139.3577178955078 115.6422821044922 0
1662.8399658203125 1561.510009765625 1550.22998046875 137.78501037597655 117.21498962402345 0
1602.9300537109375 1505.260009765625 1597.5999755859375 139.4850518798828 115.5149481201172 0
1533.31005859375 1439.8699951171875 1631.56005859375 141.8649169921875 113.13508300781251 0
1415.989990234375 1329.7099609375 1606.949951171875 147.85746887207029 107.1425311279297 0
1347.3299560546875 1265.22998046875 1629.469970703125 150.28015563964843 104.71984436035157 0
1248.780029296875 1172.6800537109375 1608.68994140625 155.1248858642578 99.8751141357422 0
1189.6800537109375 1117.1800537109375 1632.0 156.91009338378905 98.08990661621094 0
1122.280029296875 1053.8900146484375 1639.449951171875 159.41757263183592 95.58242736816408 0
1049.0 985.072998046875 1632.239990234375 162.51998962402342 92.48001037597658 0
988.801025390625 928.5460205078125 1639.6500244140625 164.56006225585935 90.43993774414064 0
921.7269897460938 865.5599975585938 1630.0899658203125 167.32251037597655 87.67748962402344 0
868.5230102539062 815.5969848632812 1639.8800048828125 168.85241180419922 86.1475881958008 0
811.697021484375 762.2340087890625 1638.449951171875 170.8073910522461 84.19260894775391 0
758.5469970703125 712.322998046875 1639.68994140625 172.46481842041015 82.53518157958985 0
705.4140014648438 662.427978515625 1636.27001953125 174.20752075195313 80.79247924804687 0
657.0640258789062 617.0239868164062 1639.5699462890625 175.4824948120117 79.51750518798829 0
606.9520263671875 569.9660034179688 1634.1099853515625 177.0548651123047 77.94513488769532 0
561.4769897460938 527.2620239257812 1636.8299560546875 178.1175830078125 76.8824169921875 0
515.3250122070312 483.9219970703125 1633.5999755859375 179.35012451171875 75.64987548828125 0
472.5660095214844 443.7690124511719 1637.3399658203125 180.15737030029297 74.84262969970703 0
428.4219970703125 402.31500244140625 1632.4300537109375 181.26242736816405 73.73757263183595 0
387.4530029296875 363.8429870605469 1635.8199462890625 181.89989624023437 73.10010375976563 0
345.3320007324219 324.2879943847656 1630.5799560546875 182.8349481201172 72.16505187988282 0
305.4679870605469 286.85400390625 1632.06005859375 183.38761413574218 71.61238586425782 0
265.72100830078125 249.5290069580078 1630.760009765625 183.98238067626954 71.01761932373047 0
227.56700134277344 213.6999969482422 1636.489990234375 184.1950259399414 70.8049740600586 0
188.84300231933594 177.3350067138672 1635.6099853515625 184.6200830078125 70.3799169921875 0
151.0240020751953 141.8209991455078 1639.969970703125 184.74731842041015 70.25268157958985 0
112.78099822998047 105.90899658203125 1636.699951171875 185.13016601562498 69.869833984375 0
75.06610107421875 70.4917984008789 1636.760009765625 185.300166015625 69.699833984375 0
37.57429885864258 35.28459930419922 1640.18994140625 185.25751556396483 69.74248443603516 0
-0.00048034900100901723 -0.00045107799815014005 1642.0 185.21499999999997 69.78500000000001 0
-37.52939987182617 -35.24250030517578 1638.18994140625 185.3425570678711 69.65744293212892 0
-75.2959976196289 -70.70760345458984 1641.75 185.087666015625 69.91233398437501 0
-113.53700256347656 -106.61799621582031 1647.6600341796875 184.66228729248047 70.33771270751954 0
-151.572998046875 -142.33700561523438 1645.9200439453125 184.49242218017577 70.50757781982422 0
-189.98399353027344 -178.40699768066406 1645.489990234375 184.1949481201172 70.80505187988281 0
-228.66099548339844 -214.7270050048828 1644.3499755859375 183.85494812011717 71.14505187988281 0
-268.2669982910156 -251.91900634765625 1646.3699951171875 183.30255706787108 71.69744293212891 0
-308.3699951171875 -289.5790100097656 1647.56005859375 182.70748443603514 72.29251556396486 0
-350.2139892578125 -328.87298583984375 1653.6300048828125 181.8148080444336 73.18519195556641 0
-390.38299560546875 -366.593994140625 1648.1800537109375 181.34752075195314 73.65247924804687 0
-432.8680114746094 -406.489990234375 1649.3599853515625 180.49764526367187 74.50235473632813 0
-474.7139892578125 -445.7860107421875 1644.77001953125 179.81766601562498 75.182333984375 0
-522.56298828125 -490.7200012207031 1656.550048828125 178.28736511230468 76.71263488769532 0
-567.6849975585938 -533.0919799804688 1654.9300537109375 177.26743255615236 77.73256744384766 0
-617.2130126953125 -579.6019897460938 1661.72998046875 175.7373651123047 79.26263488769531 0
-661.6300048828125 -621.31201171875 1650.9599609375 174.9300518798828 80.06994812011719 0
-719.5159912109375 -675.6699829101562 1668.97998046875 172.59242736816407 82.40757263183595 0
-768.7030029296875 -721.8610229492188 1661.6400146484375 171.35988067626954 83.64011932373047 0
-828.906982421875 -778.39599609375 1673.1800537109375 169.0226089477539 85.9773910522461 0
-877.52197265625 -824.0479736328125 1656.8699951171875 167.9598547363281 87.04014526367187 0
-906.9840087890625 -851.7150268554688 1604.010009765625 168.72514007568358 86.27485992431642 0
-925.6069946289062 -869.2039794921875 1534.8599853515625 170.34005187988282 84.65994812011719 0
-954.9920043945312 -896.7979736328125 1485.969970703125 170.8074792480469 84.19252075195313 0
-1008.010009765625 -946.5819702148438 1472.52001953125 169.14982360839844 85.85017639160156 0
-1071.6400146484375 -1006.3400268554688 1470.0699462890625 166.6425311279297 88.35746887207031 0
-1103.1800537109375 -1035.949951171875 1421.1199951171875 166.76995849609375 88.23004150390625 0
-1082.6800537109375 -1016.7000122070312 1309.4000244140625 170.849963684082 84.15003631591797 0
-1086.8499755859375 -1020.6199951171875 1233.4100341796875 172.76268157958984 82.23731842041016 0
-965.3729858398438 -906.5460205078125 1027.22998046875 183.77005187988283 71.22994812011719 0
-852.1859741210938 -800.2559814453125 849.3489990234375 193.58751037597656 61.41248962402344 0
-871.2139892578125 -818.1240234375 812.2100219726562 193.58748962402342 61.41251037597657 0
-714.5819702148438 -671.0380249023438 622.093994140625 205.65751037597656 49.34248962402344 0
-728.4739990234375 -684.0830078125 590.9959716796875 205.65751556396484 49.34248443603516 0
-702.0419921875 -659.260986328125 529.4459838867188 208.2925 46.7075 0
-703.426025390625 -660.5609741210938 491.6709899902344 208.97249481201172 46.02750518798828 0
-703.1240234375 -660.2769775390625 453.8800048828125 209.6949948120117 45.305005187988286 0
-705.8099975585938 -662.7999877929688 418.989990234375 210.16251556396483 44.83748443603516 0
-704.2109985351562 -661.2990112304688 382.4809875488281 210.84249481201172 44.157505187988285 0
-705.0770263671875 -662.1119995117188 348.22198486328125 211.30998962402344 43.69001037597656 0
-703.6900024414062 -660.8090209960938 313.6510009765625 211.86249740600584 43.13750259399414 0
-705.6240234375 -662.625 281.22198486328125 212.16002334594725 42.83997665405274 0
-707.47900390625 -664.3670043945312 249.18600463867188 212.41500518798827 42.58499481201172 0
-709.2789916992188 -666.0570068359375 217.48800659179688 212.6274870300293 42.37251296997071 0
-710.3280029296875 -667.0430297851562 185.88099670410156 212.84 42.160000000000004 0
-712.7940063476562 -669.3579711914062 154.86900329589844 212.9250051879883 42.074994812011724 0
-714.5419921875 -671.0 123.8280029296875 213.0099870300293 41.99001296997071 0
-715.572998046875 -671.968017578125 92.78980255126953 213.09500778198242 41.90499221801758 0
-719.5269775390625 -675.6810302734375 62.09880065917969 212.96751815795898 42.032481842041015 0
-719.1370239257812 -675.3150024414062 31.001399993896484 213.05248962402345 41.94751037597656 0
-722.4080200195312 -678.385986328125 -0.0010317399865016341 212.88250259399413 42.11749740600586 0
-680.9439697265625 -680.9439697265625 -0.001002590055577457 214.07249221801757 40.92750778198243 0
-652.3369750976562 -652.3380126953125 28.991199493408203 215.77250259399415 39.22749740600586 0
-661.9569702148438 -661.9580078125 58.89659881591797 215.1349948120117 39.86500518798828 0
-683.552978515625 -683.5540161132812 91.3781967163086 213.7325051879883 41.26749481201172 0
-669.260986328125 -669.260986328125 119.56700134277344 214.454981842041 40.545018157958985 0
-649.5130004882812 -649.5130004882812 145.48300170898438 215.47501037597655 39.52498962402344 0
-659.85302734375 -659.85302734375 178.01100158691406 214.625 40.375 0
-672.8250122070312 -672.8259887695312 212.68899536132812 213.56250259399414 41.43749740600586 0
-660.9210205078125 -660.9210205078125 239.98500061035156 213.98747924804687 41.012520751953126 0
-649.1530151367188 -649.1530151367188 266.7149963378906 214.36999740600587 40.63000259399414 0
-663.083984375 -663.083984375 304.69000244140625 213.09498443603516 41.905015563964845 0
-653.9929809570312 -653.9929809570312 332.97900390625 213.22250778198242 41.77749221801758 0
-646.2750244140625 -646.2750244140625 361.8659973144531 213.22248184204102 41.77751815795899 0
-661.9299926757812 -661.9299926757812 405.0899963378906 211.64998962402342 43.35001037597657 0
-660.2830200195312 -660.2839965820312 439.40301513671875 211.14000518798827 43.85999481201172 0
-652.718017578125 -652.718994140625 470.3330078125 210.97 44.03 0
-641.9500122070312 -641.9500122070312 499.09600830078125 210.96998962402344 44.030010375976566 0
-656.718994140625 -656.718994140625 549.2550048828125 209.14250518798826 45.85749481201172 0
-661.5089721679688 -661.510009765625 593.6950073242188 207.91001037597655 47.08998962402344 0
-659.6929931640625 -659.6939697265625 634.0289916992188 207.06000518798828 47.93999481201172 0
-679.6090087890625 -679.6090087890625 698.2880249023438 204.51001556396483 50.48998443603516 0
-663.7639770507812 -663.7650146484375 728.1329956054688 204.5099948120117 50.49000518798829 0
-1080.949951171875 -1080.949951171875 1264.6500244140625 170.68011932373048 84.31988067626953 0
-1086.81005859375 -1086.81005859375 1355.030029296875 167.91732360839842 87.08267639160157 0
-1092.260009765625 -1092.260009765625 1450.550048828125 164.9425207519531 90.05747924804687 0
-1046.0 -1046.0 1479.27001953125 166.0899169921875 88.9100830078125 0
-974.8729858398438 -974.8729858398438 1468.1400146484375 169.40506744384766 85.59493255615234 0
-927.7550048828125 -927.7550048828125 1488.219970703125 170.67998443603517 84.32001556396484 0
-921.7369995117188 -921.7369995117188 1575.699951171875 168.08746368408202 86.91253631591798 0
-898.4199829101562 -898.4199829101562 1637.989990234375 166.89751037597654 88.10248962402345 0
-854.9450073242188 -854.9459838867188 1664.1500244140625 167.57739624023435 87.42260375976564 0
-796.8939819335938 -796.8939819335938 1658.300048828125 169.78734954833982 85.21265045166017 0
-741.10302734375 -741.10302734375 1651.5 171.87018157958983 83.12981842041016 0
-696.1370239257812 -696.1380004882812 1664.6700439453125 172.805166015625 82.19483398437501 0
-639.4030151367188 -639.4030151367188 1644.8299560546875 175.22739624023438 79.77260375976563 0
-596.1339721679688 -596.135009765625 1654.5999755859375 176.0774481201172 78.92255187988282 0
-549.4559936523438 -549.4559936523438 1651.31005859375 177.43745849609374 77.56254150390626 0
-505.76800537109375 -505.76800537109375 1652.8800048828125 178.45733917236328 76.54266082763672 0
-460.99798583984375 -460.99798583984375 1646.6300048828125 179.73265045166016 75.26734954833985 0
-419.64599609375 -419.6470031738281 1648.4200439453125 180.5401089477539 74.45989105224609 0
-378.0190124511719 -378.0199890136719 1645.3299560546875 181.4748962402344 73.52510375976563 0
-336.9490051269531 -336.9490051269531 1640.1800537109375 182.41005187988281 72.5899481201172 0
-298.593994140625 -298.593994140625 1644.6500244140625 182.83517120361327 72.16482879638673 0
-259.2959899902344 -259.2959899902344 1640.52001953125 183.55732360839843 71.44267639160157 0
-221.406005859375 -221.406005859375 1641.4000244140625 183.98257263183592 71.01742736816406 0
-184.50799560546875 -184.50799560546875 1647.4599609375 184.11017120361328 70.88982879638672 0
-146.76199340820312 -146.76199340820312 1642.93994140625 184.62007781982422 70.37992218017578 0
-109.79900360107422 -109.79900360107422 1642.6800537109375 184.87487548828125 70.12512451171875 0
-72.9489974975586 -72.9490966796875 1639.760009765625 185.17240661621094 69.82759338378906 0
-36.359500885009766 -36.359500885009766 1636.18994140625 185.42759857177734 69.57240142822266 0
-0.0004645239969249815 -0.0004645239969249815 1637.0 185.4275 69.5725 0
36.35860061645508 36.35860061645508 1636.18994140625 185.42759857177734 69.57240142822266 0
72.81490325927734 72.81490325927734 1636.760009765625 185.300166015625 69.699833984375 0
109.53199768066406 109.53199768066406 1638.699951171875 185.04479248046874 69.95520751953126 0
146.14100646972656 146.14100646972656 1636.0 184.91737548828127 70.08262451171875 0
183.1790008544922 183.17999267578125 1635.6099853515625 184.6200830078125 70.3799169921875 0
220.61000061035156 220.61000061035156 1635.510009765625 184.23742736816405 70.76257263183594 0
258.3689880371094 258.3689880371094 1634.6600341796875 183.81253112792967 71.18746887207031 0
296.65899658203125 296.65899658203125 1634.0 183.3025 71.6975 0
336.15899658203125 336.15899658203125 1636.3399658203125 182.5800207519531 72.41997924804689 0
377.3630065917969 377.3630065917969 1642.469970703125 181.6026919555664 73.3973080444336 0
417.010986328125 417.010986328125 1638.0699462890625 181.00764007568358 73.99235992431642 0
458.1340026855469 458.1340026855469 1636.4100341796875 180.19986511230468 74.80013488769532 0
502.9590148925781 502.9590148925781 1643.699951171875 178.88245330810548 76.11754669189453 0
544.3369750976562 544.3369750976562 1635.9300537109375 178.1598962402344 76.84010375976563 0
592.281005859375 592.281005859375 1643.9100341796875 176.58740142822265 78.41259857177735 0
637.0180053710938 637.0180053710938 1638.68994140625 175.525129699707 79.47487030029298 0
687.4979858398438 687.4979858398438 1644.02001953125 173.82490142822263 81.17509857177735 0
734.6610107421875 734.6610107421875 1637.1500244140625 172.5925778198242 82.40742218017579 0
792.1229858398438 792.1240234375 1648.3699951171875 170.29756225585936 84.70243774414062 0
839.9819946289062 839.9819946289062 1635.02001953125 169.10761413574218 85.89238586425782 0
902.3189697265625 902.3200073242188 1645.0999755859375 166.51509338378906 88.48490661621095 0
956.4420166015625 956.4420166015625 1635.030029296875 164.81497924804688 90.18502075195313 0
1018.0 1018.0 1632.989990234375 162.4777490234375 92.5222509765625 0
1082.81005859375 1082.8199462890625 1630.699951171875 159.92759338378906 95.07240661621094 0
1154.0 1154.0 1632.0 156.91007263183593 98.08992736816407 0
1225.239990234375 1225.25 1627.1700439453125 153.9774688720703 101.0225311279297 0
1306.4000244140625 1306.4000244140625 1628.81005859375 150.32237548828124 104.67762451171876 0
1390.4200439453125 1390.4200439453125 1626.7099609375 146.53985473632812 108.46014526367188 0
1484.530029296875 1484.530029296875 1628.489990234375 142.0775830078125 112.92241699218751 0
1581.1800537109375 1581.1800537109375 1624.6400146484375 137.52984436035155 117.47015563964844 0
1644.550048828125 1644.550048828125 1580.5799560546875 135.490166015625 119.509833984375 0
1666.31005859375 1666.31005859375 1495.489990234375 136.38259338378907 118.61740661621094 0
1662.7900390625 1662.800048828125 1390.699951171875 138.8900207519531 116.10997924804688 0
1661.8800048828125 1661.8800048828125 1292.06005859375 141.01511413574218 113.98488586425782 0
1656.3699951171875 1656.3699951171875 1193.5400390625 143.267333984375 111.73266601562501 0
1659.6700439453125 1659.6700439453125 1104.469970703125 144.7547717285156 110.24522827148438 0
1655.469970703125 1655.469970703125 1013.1199951171875 146.58272827148437 108.41727172851563 0
1660.719970703125 1660.719970703125 929.8820190429688 147.64511413574218 107.35488586425782 0
1657.93994140625 1657.93994140625 844.135009765625 149.0897509765625 105.9102490234375 0
1660.4000244140625 1660.4000244140625 762.9630126953125 150.06742736816406 104.93257263183594 0
1659.550048828125 1659.550048828125 681.85400390625 151.12998962402344 103.87001037597658 0
1661.550048828125 1661.550048828125 603.3209838867188 151.8948547363281 103.10514526367189 0
1661.7099609375 1661.7099609375 525.2890014648438 152.6597821044922 102.34021789550782 0
1664.219970703125 1664.219970703125 448.9649963378906 153.1699169921875 101.8300830078125 0
1665.68994140625 1665.68994140625 373.09600830078125 153.6373132324219 101.36268676757813 0
1665.4300537109375 1665.43994140625 297.5409851074219 154.10497924804687 100.89502075195313 0
1668.4100341796875 1668.4100341796875 223.03599548339844 154.27474060058591 100.72525939941407 0
1669.010009765625 1669.010009765625 148.49899291992188 154.48735473632811 100.51264526367189 0
1671.47998046875 1671.47998046875 74.28620147705078 154.48764526367188 100.51235473632813 0
1670.18994140625 1670.18994140625 -0.00028154999017715454 154.61477172851562 100.38522827148438 0
1637.43994140625 1743.68994140625 -0.00028512600692920387 153.33999999999997 101.66000000000001 0
1640.72998046875 1747.199951171875 75.32270050048828 153.08524902343748 101.9147509765625 0
1654.02001953125 1761.3499755859375 152.01600646972656 152.10746887207029 102.8925311279297 0
1631.530029296875 1737.4100341796875 225.2949981689453 153.25494812011718 101.74505187988282 0
1643.5400390625 1750.18994140625 303.3059997558594 152.15014526367187 102.84985473632813 0
1657.1700439453125 1764.7099609375 383.4209899902344 150.83229248046874 104.16770751953126 0
1658.18994140625 1765.800048828125 462.0820007324219 150.19492736816406 104.80507263183594 0
1636.75 1742.9599609375 534.4509887695312 150.87502075195312 104.12497924804688 0
1647.6600341796875 1754.5799560546875 617.9940185546875 149.3872821044922 105.61271789550781 0
1667.739990234375 1775.9599609375 707.7999877929688 147.17747924804686 107.82252075195314 0
1648.43994140625 1755.4100341796875 782.4310302734375 147.3900518798828 107.6099481201172 0
1642.4000244140625 1748.97998046875 863.781005859375 146.62478210449217 108.37521789550782 0
1649.739990234375 1756.800048828125 954.1790161132812 144.84014526367187 110.15985473632813 0
1664.219970703125 1772.219970703125 1052.0400390625 142.417666015625 112.58233398437501 0
1644.5 1751.2099609375 1130.43994140625 142.16261413574216 112.83738586425783 0
1651.0999755859375 1758.239990234375 1228.949951171875 139.9524377441406 115.04756225585939 0
1651.449951171875 1758.6199951171875 1326.27001953125 137.99739624023437 117.00260375976563 0
1668.6700439453125 1776.949951171875 1441.6099853515625 134.6398028564453 120.3601971435547 0
1646.6700439453125 1753.530029296875 1526.5699462890625 133.91745849609373 121.08254150390626 0
1590.3900146484375 1693.5899658203125 1578.8900146484375 135.6175 119.38250000000001 0
1529.0699462890625 1628.2900390625 1622.8800048828125 137.6574896240234 117.34251037597657 0
1439.3299560546875 1532.72998046875 1630.949951171875 141.90742736816406 113.09257263183595 0
1340.780029296875 1427.7900390625 1620.3299560546875 146.96515563964843 108.03484436035157 0
1266.260009765625 1348.4300537109375 1630.800048828125 150.19473022460937 104.80526977539063 0
1181.6600341796875 1258.3399658203125 1621.010009765625 154.36009338378904 100.63990661621095 0
1146.22998046875 1220.6099853515625 1674.4300537109375 154.35978210449218 100.64021789550782 0
1109.6600341796875 1181.6600341796875 1726.199951171875 154.35992736816405 100.64007263183595 0
984.1680297851562 1048.030029296875 1630.739990234375 162.60508300781248 92.3949169921875 0
948.6170043945312 1010.1799926757812 1675.0999755859375 162.6047821044922 92.39521789550781 0
867.2379760742188 923.5150146484375 1633.25 167.15252075195312 87.84747924804688 0
814.3900146484375 867.2369995117188 1637.449951171875 168.9800259399414 86.0199740600586 0
759.9249877929688 809.239013671875 1633.47998046875 171.06265563964843 83.93734436035157 0
711.2219848632812 757.375 1637.1500244140625 172.5925778198242 82.40742218017579 0
661.0339965820312 703.9299926757812 1632.8299560546875 174.3774118041992 80.62258819580079 0
615.7050170898438 655.6589965820312 1636.06005859375 175.6526712036133 79.34732879638672 0
570.5880126953125 607.614990234375 1635.8900146484375 176.9699169921875 78.03008300781251 0
526.6790161132812 560.8560180664062 1635.02001953125 178.20259857177734 76.79740142822266 0
483.6499938964844 515.0349731445312 1632.68994140625 179.392333984375 75.607666015625 0
443.01300048828125 471.760986328125 1634.550048828125 180.2848962402344 74.71510375976563 0
402.0830078125 428.17498779296875 1631.489990234375 181.30490142822265 73.69509857177735 0
363.4200134277344 387.00299072265625 1633.9200439453125 181.98479766845702 73.01520233154298 0
324.47900390625 345.5350036621094 1631.5400390625 182.792463684082 72.20753631591798 0
287.02398681640625 305.6499938964844 1633.030029296875 183.34505187988282 71.6549481201172 0
250.4250030517578 266.6759948730469 1636.6099853515625 183.7276037597656 71.27239624023439 0
213.6999969482422 227.56700134277344 1636.489990234375 184.1950259399414 70.8049740600586 0
177.12100219726562 188.61500549316406 1633.6400146484375 184.70485473632812 70.29514526367188 0
141.56399536132812 150.75 1636.989990234375 184.87496887207033 70.12503112792969 0
105.90899658203125 112.78099822998047 1636.699951171875 185.13016601562498 69.869833984375 0
70.53479766845703 75.11190032958984 1637.760009765625 185.2575830078125 69.7424169921875 0
35.22010040283203 37.50559997558594 1637.18994140625 185.38507263183595 69.61492736816406 0
-0.00045080299605615437 -0.0004800560127478093 1641.0 185.2575 69.7425 0
-35.263999938964844 -37.55229949951172 1639.18994140625 185.30003112792969 69.69996887207031 0
-70.62159729003906 -75.20439910888672 1639.760009765625 185.1724118041992 69.82758819580079 0
-106.36000061035156 -113.26200103759766 1643.6700439453125 184.83261413574218 70.16738586425782 0
-142.07899475097656 -151.2989959716797 1642.93994140625 184.6200830078125 70.3799169921875 0
-178.51400756835938 -190.09800720214844 1646.47998046875 184.15234954833983 70.84765045166016 0
-214.98300170898438 -228.9340057373047 1646.31005859375 183.7701348876953 71.2298651123047 0
-252.21800231933594 -268.5849914550781 1648.3199462890625 183.21762969970703 71.78237030029297 0
-287.5360107421875 -306.19500732421875 1635.93994140625 183.21736511230466 71.78263488769532 0
-328.1090087890625 -349.3999938964844 1649.780029296875 181.98517120361328 73.01482879638672 0
-363.4209899902344 -387.0039978027344 1633.9100341796875 181.9851867675781 73.01481323242189 0
-406.72198486328125 -433.114990234375 1650.300048828125 180.45517639160155 74.54482360839845 0
-448.3059997558594 -477.39801025390625 1654.0699462890625 179.39257781982423 75.60742218017579 0
-490.718994140625 -522.56298828125 1656.550048828125 178.28738067626952 76.71261932373048 0
-532.7999877929688 -567.375 1654.02001953125 177.3101348876953 77.68986511230469 0
-578.0469970703125 -615.5579833984375 1657.27001953125 175.95006744384764 79.04993255615236 0
-623.9500122070312 -664.4400024414062 1657.969970703125 174.59006225585938 80.40993774414063 0
-672.8820190429688 -716.5469970703125 1662.0899658203125 172.93258819580078 82.06741180419922 0
-729.56298828125 -776.906005859375 1679.3699951171875 170.4674221801758 84.53257781982423 0
-774.5479736328125 -824.8099975585938 1664.9100341796875 169.44757781982423 85.55242218017578 0
-835.3140258789062 -889.5189819335938 1679.52001953125 166.7699481201172 88.23005187988282 0
-877.72802734375 -934.6859741210938 1653.0 166.0901037597656 88.90989624023437 0
-912.8380126953125 -972.073974609375 1611.9100341796875 166.09009338378905 88.90990661621095 0
-912.1890258789062 -971.3829956054688 1511.469970703125 169.36260375976562 85.63739624023438 0
-944.239013671875 -1005.510009765625 1468.8699951171875 169.36258819580075 85.63741180419923 0
-1014.0800170898438 -1079.8900146484375 1481.3900146484375 165.96237548828122 89.03762451171876 0
-1066.3900146484375 -1135.5899658203125 1462.8800048828125 164.17748962402345 90.82251037597656 0
-1071.6500244140625 -1141.18994140625 1380.1600341796875 166.30228210449218 88.69771789550782 0
-1053.3199462890625 -1121.6800537109375 1272.9300537109375 170.12759338378908 84.87240661621094 0
-702.0859985351562 -747.64599609375 795.552978515625 199.8350051879883 55.16499481201172 0
-617.4990234375 -657.5700073242188 655.3800048828125 207.6124740600586 47.38752593994141 0
-619.9619750976562 -660.1929931640625 615.4810180664062 208.46251037597656 46.53748962402344 0
-611.5050048828125 -651.18701171875 566.9039916992188 210.0350207519531 44.96497924804688 0
-610.4299926757812 -650.0430297851562 527.3660278320312 210.97000518798828 44.02999481201172 0
-613.0709838867188 -652.85400390625 492.35198974609375 211.56498184204102 43.435018157958986 0
-605.6669921875 -644.969970703125 450.81201171875 212.7974740600586 42.20252593994141 0
-610.7249755859375 -650.3569946289062 419.8179931640625 213.09499221801758 41.90500778198243 0
-606.885986328125 -646.2680053710938 383.6440124511719 213.9450077819824 41.05499221801758 0
-610.3800048828125 -649.989013671875 353.031005859375 214.2425129699707 40.7574870300293 0
-608.0089721679688 -647.4639892578125 319.76800537109375 214.87999740600586 40.120002593994144 0
-610.677978515625 -650.3070068359375 289.85699462890625 215.13500259399413 39.86499740600586 0
-611.3510131835938 -651.0230102539062 259.46099853515625 215.47497665405274 39.52502334594727 0
-616.6279907226562 -656.6420288085938 231.281005859375 215.47500518798827 39.52499481201172 0
-614.6160278320312 -654.5 200.6909942626953 215.9 39.1 0
-616.6110229492188 -656.6240234375 171.8280029296875 216.02749740600586 38.97250259399414 0
-617.2969970703125 -657.35498046875 142.82400512695312 216.19748184204101 38.802518157958986 0
-618.7050170898438 -658.85400390625 114.1780014038086 216.28249740600586 38.71750259399414 0
-620.1729736328125 -660.4180297851562 85.63770294189453 216.32499221801757 38.67500778198242 0
-623.0750122070312 -663.5079956054688 57.263999938964844 216.23998703002928 38.7600129699707 0
-626.051025390625 -666.677001953125 28.739900588989258 216.11252075195313 38.88747924804688 0
-627.0449829101562 -667.7349853515625 -0.0009536570287309587 216.07001556396483 38.929984436035156 0
-585.9219970703125 -664.5989990234375 -0.0009224240202456713 217.34498962402344 37.655010375976566 0
-569.1079711914062 -645.5269775390625 27.043800354003906 218.40751556396484 36.59248443603516 0
-578.8259887695312 -656.5490112304688 55.06639862060547 217.7275129699707 37.272487030029296 0
-590.5640258789062 -669.864013671875 84.41429901123047 216.87749221801758 38.12250778198243 0
-577.364990234375 -654.8930053710938 110.29199981689453 217.6000129699707 37.3999870300293 0
-566.9520263671875 -643.0809936523438 135.78399658203125 218.1099740600586 36.89002593994141 0
-574.8939819335938 -652.0900268554688 165.83200073242188 217.38750518798827 37.61249481201172 0
-584.073974609375 -662.5020141601562 197.41900634765625 216.5374870300293 38.4625129699707 0
-571.9979858398438 -648.8049926757812 222.07899475097656 217.0475077819824 37.95249221801758 0
-567.7379760742188 -643.9730224609375 249.41700744628906 217.0049870300293 37.99501296997071 0
-571.7109985351562 -648.47900390625 280.89599609375 216.36749740600584 38.63250259399415 0
-575.5490112304688 -652.8330078125 313.3320007324219 215.68751037597656 39.31248962402344 0
-565.6820068359375 -641.6409912109375 338.67401123046875 215.90001556396484 39.09998443603516 0
-564.43798828125 -640.22900390625 369.34698486328125 215.47498443603516 39.52501556396485 0
-575.0360107421875 -652.2509765625 409.1730041503906 214.15751556396484 40.84248443603516 0
-571.5560302734375 -648.3040161132812 440.3699951171875 213.77499740600587 41.22500259399414 0
-568.5009765625 -644.8389892578125 472.6000061035156 213.30748962402345 41.69251037597657 0
-565.8040161132812 -641.7789916992188 505.9859924316406 212.75499221801758 42.24500778198242 0
-580.1400146484375 -658.0399780273438 556.7230224609375 210.8425259399414 44.1574740600586 0
-571.0250244140625 -647.7009887695312 586.8140258789062 210.62998443603516 44.37001556396485 0
-558.552978515625 -633.5549926757812 613.64697265625 210.63 44.370000000000005 0
-595.1719970703125 -675.0900268554688 698.0999755859375 206.59252075195312 48.407479248046876 0
-580.3770141601562 -658.3090209960938 726.0250244140625 206.59251037597656 48.40748962402344 0
-960.3670043945312 -1089.3199462890625 1280.300048828125 172.7200570678711 82.27994293212892 0
-1015.72998046875 -1152.1199951171875 1442.3399658203125 165.452666015625 89.547333984375 0
-975.9190063476562 -1106.9599609375 1475.72998046875 166.30262451171876 88.69737548828125 0
-924.864990234375 -1049.050048828125 1489.280029296875 168.17263488769532 86.82736511230469 0
-907.4669799804688 -1029.3199462890625 1556.47998046875 166.81248962402344 88.18751037597657 0
-891.1279907226562 -1010.7899780273438 1628.8599853515625 165.15506225585938 89.84493774414064 0
-843.8820190429688 -957.197021484375 1645.0999755859375 166.51507263183595 88.48492736816407 0
-801.1300048828125 -908.7050170898438 1667.3800048828125 167.40761413574216 87.59238586425782 0
-766.0999755859375 -868.969970703125 1704.6099853515625 167.4075830078125 87.59241699218751 0
-697.7130126953125 -791.4000244140625 1662.47998046875 171.31754150390623 83.68245849609376 0
-662.8350219726562 -751.8389892578125 1694.800048828125 171.31751556396483 83.68248443603517 0
-602.77197265625 -683.7109985351562 1657.969970703125 174.59005187988282 80.40994812011719 0
-558.7269897460938 -633.7520141601562 1658.1600341796875 175.90759857177733 79.09240142822266 0
-514.4340209960938 -583.510986328125 1653.1199951171875 177.35244812011717 77.64755187988281 0
-473.2749938964844 -536.8259887695312 1653.7900390625 178.41512969970702 76.58487030029298 0
-432.1159973144531 -490.1390075683594 1650.3499755859375 179.5626141357422 75.43738586425782 0
-392.9169921875 -445.6759948730469 1650.300048828125 180.45518157958983 74.54481842041017 0
-353.74200439453125 -401.2409973144531 1646.280029296875 181.4324429321289 73.56755706787109 0
-316.2340087890625 -358.6969909667969 1645.93994140625 182.15512451171872 72.84487548828126 0
-278.927001953125 -316.3810119628906 1642.719970703125 182.91987030029298 72.08012969970703 0
-243.0800018310547 -275.7200012207031 1644.4200439453125 183.38747924804687 71.61252075195313 0
-206.9429931640625 -234.72999572753906 1640.4200439453125 184.02497924804686 70.97502075195312 0
-172.2480010986328 -195.3769989013672 1644.5 184.23754150390624 70.76245849609376 0
-137.1739959716797 -155.593994140625 1641.949951171875 184.66248962402344 70.33751037597656 0
-102.75 -116.5469970703125 1643.6700439453125 184.83261413574218 70.16738586425782 0
-68.18299865722656 -77.3385009765625 1638.760009765625 185.2149948120117 69.78500518798829 0
-34.087799072265625 -38.665000915527344 1640.18994140625 185.25751037597655 69.74248962402345 0
-0.000434971007052809 -0.0004933769814670086 1639.0 185.3425 69.6575 0
34.024600982666016 38.59339904785156 1637.18994140625 185.38507781982423 69.61492218017578 0
68.18219757080078 77.3375015258789 1638.760009765625 185.2149948120117 69.78500518798829 0
102.31400299072266 116.052001953125 1636.699951171875 185.13016601562498 69.869833984375 0
136.9250030517578 155.30999755859375 1638.969970703125 184.79015045166017 70.20984954833985 0
171.21299743652344 194.2030029296875 1634.6199951171875 184.66267639160156 70.33732360839845 0
206.69400024414062 234.447998046875 1638.4599609375 184.10980804443358 70.89019195556641 0
241.34800720214844 273.7550048828125 1632.7099609375 183.89745330810547 71.10254669189453 0
278.9259948730469 316.3800048828125 1642.719970703125 182.91988586425782 72.08011413574219 0
314.2030029296875 356.3940124511719 1635.3800048828125 182.62251037597656 72.37748962402344 0
350.6759948730469 397.7640075683594 1632.010009765625 182.07011932373047 72.92988067626953 0
389.55499267578125 441.864013671875 1636.18994140625 181.0925778198242 73.90742218017579 0
428.2200012207031 485.7200012207031 1635.47998046875 180.24238067626953 74.75761932373048 0
